NCOLS 283
NROWS 32
XLLCORNER 314790
YLLCORNER 5634431
CELLSIZE 10.000000
NODATA_VALUE -99999.000000
507.6041 507.9381 507.9544 507.9642 508.0837 508.3427 508.3300 508.2425 507.9922 507.1740 506.8687 506.4498 506.3584 506.7119 506.7842 506.8489 506.9590 507.1064 507.1061 507.1580 507.3092 507.6119 507.6556 507.8278 507.9483 507.6889 507.6556 507.7405 507.6930 507.0736 506.7641 506.4800 506.1061 504.9930 504.3714 502.6809 501.1385 499.5558 498.8116 498.1844 498.6975 499.1209 499.3583 499.6350 499.8986 500.4470 500.8375 501.2973 501.7905 502.6744 503.1995 503.8290 504.6947 505.9587 506.0406 506.0819 506.3081 506.8834 507.0914 507.2023 507.2463 507.4252 507.4444 507.3900 507.4252 507.4108 507.2789 507.2433 507.3138 507.4253 507.5745 507.7072 507.8029 508.0745 508.1378 508.1010 508.1426 508.2431 508.1092 508.0700 508.1336 508.3505 508.3651 508.2358 507.9000 508.3870 508.8823 509.1512 509.2720 509.3234 509.1911 509.0385 508.9171 509.1049 509.1908 509.1716 509.0203 508.8581 508.4636 508.0656 508.1184 508.1308 508.0697 507.9980 508.3516 508.8931 508.7709 508.7019 508.7370 508.7375 508.8095 508.7092 508.4213 508.4276 508.7984 508.8661 508.8120 508.9034 508.9300 508.4670 508.2550 508.2642 508.2548 508.2566 508.1248 507.8034 507.7841 507.7348 507.5908 507.1137 506.7956 506.5713 506.5999 506.5556 506.4006 506.3431 506.3637 506.1577 506.1898 506.1230 505.7147 505.3384 505.7625 506.0645 506.0250 505.5125 505.2655 505.0886 505.1127 505.3384 505.1859 505.1219 505.2197 506.0870 506.3564 506.4200 506.1762 505.2592 505.4934 505.9279 506.0783 506.3484 506.6180 506.7126 506.3494 505.5200 505.6305 505.5970 505.4186 505.1620 505.5064 505.8180 505.9513 505.8019 505.5840 505.3703 505.2708 505.2672 505.1839 505.1713 505.1166 505.1736 505.1061 505.1495 505.3242 505.2155 505.0031 505.0011 505.0200 504.8750 504.7303 504.6359 504.6977 505.2877 505.8037 505.9661 506.1728 506.5417 506.4447 506.2208 505.9928 505.7927 505.6544 505.5264 505.4720 505.7119 505.7741 505.5927 505.3342 505.5779 505.6575 505.7017 505.6302 504.8856 504.8936 505.1353 505.2350 505.1595 505.2569 505.3694 505.3697 505.1191 504.8967 504.8044 504.8020 504.8048 504.7805 504.8030 504.7973 505.0187 504.9938 504.8619 504.7931 504.7739 504.8337 504.8002 504.9009 504.9891 504.8536 504.9388 505.2142 505.7263 506.0075 506.1709 506.1181 505.9937 506.1653 506.3401 506.2214 505.1959 504.7353 504.7729 505.0797 505.4177 505.0347 504.4944 504.3144 504.0433 504.0217 504.0099 503.9936 504.3855 504.5000 504.5806 504.6433 505.1755 505.4586 505.5056 505.3420 504.8556 504.6144 -99999.0000 -99999.0000 -99999.0000 -99999.0000 -99999.0000 -99999.0000 -99999.0000 -99999.0000 -99999.0000 -99999.0000 -99999.0000 -99999.0000
507.7048 508.0864 508.1031 508.1448 508.2442 508.3894 508.2414 508.0475 507.7280 506.9120 506.4451 506.1183 506.2717 506.6444 506.7986 506.8919 506.9433 506.9388 506.9617 507.0478 507.1963 507.5305 507.5674 507.6336 507.6302 507.5411 507.5695 507.6036 507.5228 506.9261 506.6161 506.3931 506.0400 504.9037 504.2877 502.6409 501.0467 499.5255 499.0211 498.4116 498.3837 499.1112 499.3373 499.6273 499.8594 500.3911 500.7822 501.2740 501.7814 502.6478 503.1479 503.7623 504.5894 506.0497 506.2136 506.2394 506.4645 506.9559 507.1930 507.3580 507.3463 507.2278 507.2522 507.2552 507.3314 507.4061 507.4019 507.4139 507.4841 507.6412 507.7483 507.8369 507.8123 507.8109 507.9314 508.0661 508.2125 508.2059 507.9611 507.8073 507.7861 508.1141 508.1958 508.1203 507.9161 508.4463 508.8930 509.0814 509.0575 508.9617 508.8920 508.9227 508.9892 509.2137 509.2020 509.1133 508.9772 508.9558 508.6313 508.2662 508.3683 508.4662 508.2966 508.1241 508.1269 508.9239 508.9508 508.8755 508.7895 508.6619 508.7030 508.6472 508.4128 508.4594 508.7058 508.7655 508.7184 508.9330 508.8758 508.4289 508.1775 508.0663 508.0576 508.1159 508.0573 507.7056 507.7061 507.6848 507.5527 507.2736 507.1248 507.0044 507.0139 506.8006 506.6689 506.5889 506.4963 506.0648 506.2291 506.2513 506.0361 505.7327 505.9517 506.0537 505.9113 505.4786 505.4720 505.5055 505.5689 505.5308 505.3248 505.2436 505.3794 506.2584 506.4136 506.3466 506.0492 505.2762 505.2748 505.8025 505.9758 506.2436 506.5681 506.5666 506.1581 505.3200 505.4227 505.5025 505.4584 505.2902 505.5725 505.8267 505.9008 505.9362 505.9381 505.6241 505.1855 505.0472 505.0862 505.0559 505.2451 505.4774 505.3687 505.1769 505.1016 505.1964 505.1624 505.1856 505.2514 505.3822 505.3097 504.8933 504.5036 505.3328 505.8423 506.1280 506.3806 506.4061 506.2252 506.0678 505.9055 505.6956 505.5325 505.4377 505.5222 505.8650 505.8445 505.5416 505.2263 505.5042 505.6011 505.6259 505.6447 505.0956 504.8247 504.8002 504.9403 505.1197 505.2811 505.4980 505.5880 505.2781 504.9861 504.8045 504.7687 504.7667 504.8092 504.8502 504.8405 505.0609 505.2308 505.1059 504.8869 504.8489 504.9052 505.0677 505.2120 505.0638 504.9955 505.1394 505.4171 505.8733 506.0912 506.2214 506.2631 506.3353 506.3989 506.3555 506.1275 505.1356 504.7741 504.7597 505.1089 505.5405 505.2076 504.6905 504.3670 504.3281 504.2333 504.0566 504.0208 504.4213 504.5713 504.6116 504.6078 505.1156 505.4030 505.5167 505.4253 505.0656 504.8167 504.6458 -99999.0000 -99999.0000 -99999.0000 -99999.0000 -99999.0000 -99999.0000 -99999.0000 -99999.0000 -99999.0000 -99999.0000 -99999.0000
507.5431 507.7617 507.5278 507.4566 507.6270 507.8361 507.9095 507.6763 507.3583 506.4341 506.0074 506.0936 506.1994 506.5509 506.7302 506.8383 506.8183 506.7302 506.7447 506.8225 506.9562 507.3559 507.5905 507.6252 507.4556 507.3362 507.2631 507.1377 507.0067 506.6872 506.3847 505.9448 505.3817 504.5013 503.9359 502.4841 501.1906 499.5713 499.1077 498.8197 498.3719 499.1628 499.3508 499.4997 499.6936 500.2704 500.7142 501.2292 501.7041 502.4927 502.9156 503.4714 504.1406 505.6950 506.0840 506.3370 506.6387 506.9986 507.1361 507.2730 507.1995 506.9149 506.9017 507.0434 507.1611 507.2639 507.4589 507.5559 507.5572 507.6476 507.7672 507.7941 507.6444 507.6114 507.7103 507.8416 507.9953 508.2252 508.2628 508.2114 508.1422 508.1231 508.1945 508.3123 508.3848 508.6206 508.8211 508.8758 508.7495 508.3917 508.3701 508.6278 508.8164 508.4862 508.2402 508.1245 508.2867 508.8753 508.8933 508.7678 508.6200 508.5475 508.3397 508.2316 508.1797 508.8595 508.9452 508.8652 508.7247 508.1556 508.0620 508.2183 508.4064 508.5569 508.6789 508.7984 508.7781 508.9645 508.8484 508.3869 508.1969 508.0711 507.9366 507.8534 507.7945 507.7447 507.8264 507.9188 507.9250 507.8394 507.9559 507.9923 507.8017 507.4783 507.4330 506.9933 506.2875 506.1580 506.5155 506.6437 506.5728 506.3023 506.1241 506.0225 505.9381 506.1145 506.2963 506.2631 506.0070 505.7798 505.7376 505.6555 505.5377 505.9028 505.9662 505.9786 505.9081 505.7028 505.5319 505.1608 505.3805 505.8836 506.1091 506.0128 505.7742 505.5272 505.5170 505.3992 505.3400 505.2055 505.4734 505.7963 505.9348 506.2034 506.1156 505.6117 505.2903 505.0867 505.0180 505.0862 505.4200 505.9587 505.8178 505.5081 505.3436 505.5159 505.4323 505.4048 505.5709 505.7589 505.5380 504.9783 504.7203 505.8694 506.1892 506.3510 506.2693 506.1172 506.0944 505.9473 505.7544 505.4023 505.2500 505.2626 505.3127 505.7234 505.8091 505.6355 505.4309 505.3508 505.2402 505.2025 505.2874 505.3084 505.1770 505.0355 504.8731 504.8233 505.1803 505.6434 505.9058 505.4672 505.0847 504.7534 504.7120 504.9604 505.0795 505.0175 504.8958 505.4708 505.6536 505.5463 505.2092 505.5728 505.7266 505.8556 505.9328 505.8514 505.8588 505.9256 505.9192 505.7022 505.7594 505.8791 506.0578 506.4745 506.4058 506.2150 506.1150 505.6423 505.2919 505.2726 505.4217 505.8555 505.7830 505.4830 505.1950 505.0519 504.9149 504.7498 504.6470 504.6003 504.6377 504.6373 504.6620 505.0630 505.2894 505.5564 505.8122 505.9720 505.8689 505.6938 505.5522 -99999.0000 -99999.0000 -99999.0000 -99999.0000 -99999.0000 -99999.0000 -99999.0000 -99999.0000 -99999.0000 -99999.0000
507.7061 507.6014 506.8923 506.7378 506.8806 507.5250 507.7531 507.5791 507.2959 506.6020 506.1875 506.1465 506.1448 506.5105 506.6248 506.6916 506.7092 506.6908 506.6975 506.7508 506.8673 507.2602 507.5038 507.5714 507.4644 507.1633 507.0403 506.9242 506.8105 506.5625 506.2441 505.7716 505.1695 504.4345 503.8380 502.4810 501.2001 499.5106 499.1642 498.7484 498.4011 499.2241 499.3474 499.4886 499.6498 500.2366 500.6578 501.1366 501.6120 502.4173 502.8134 503.3695 503.9989 505.4444 505.8853 506.1870 506.4444 506.8022 506.9161 507.0305 507.1534 507.0086 506.9067 507.0472 507.2192 507.2953 507.4680 507.5761 507.6156 507.6492 507.7523 507.8053 507.6911 507.7291 507.8733 508.0273 508.1411 508.4342 508.5391 508.5011 508.4174 508.3175 508.3463 508.4672 508.6241 508.7729 508.8400 508.8317 508.6847 508.3845 508.2894 508.4464 508.4738 508.0966 508.1741 508.0986 508.1189 508.7944 508.8863 508.7761 508.5435 508.4819 508.3725 508.2881 508.3370 508.7166 508.7191 508.5406 508.4178 508.1128 508.1127 508.2495 508.4997 508.7363 508.9133 509.0603 508.9755 508.7541 508.6042 508.3305 508.2720 508.2574 508.0608 507.8695 507.7791 507.8384 507.8596 507.9796 508.0002 507.9516 508.1330 508.1844 507.9991 507.5806 507.4934 507.0103 506.3116 506.5112 506.8034 506.8406 506.6969 506.1155 505.8864 505.9209 506.0683 506.4352 506.4867 506.2648 505.7591 505.6100 505.6819 505.5638 505.4161 505.7249 505.7913 505.8555 505.8809 505.7472 505.5811 505.1183 505.1248 505.9331 506.1666 506.0449 505.7845 505.5233 505.4994 505.4391 505.3922 504.9675 505.1330 505.6212 505.8886 506.0583 505.8947 505.4626 505.2491 505.0386 505.0276 505.2097 505.5694 506.0494 506.0052 505.8120 505.6891 505.7364 505.6044 505.5030 505.6505 505.5903 505.2120 504.6617 505.0862 506.0097 506.3281 506.4241 506.2775 506.0059 505.9741 505.8915 505.7175 505.2377 505.1498 505.1931 505.2080 505.5031 505.7486 505.7852 505.7098 505.5112 505.2451 505.1103 505.2206 505.4597 505.3028 505.1723 504.9569 504.8245 505.1781 505.5436 505.7484 505.4142 505.1649 505.0774 505.0710 505.2408 505.2847 505.1806 505.1702 505.7086 505.8144 505.4955 505.0816 505.4764 505.8213 506.0480 506.1233 506.0197 506.0077 506.0128 505.8928 505.2841 505.3990 505.7239 505.9703 506.3411 506.3039 506.1153 506.0323 505.7405 505.5092 505.5495 505.6216 505.8902 505.9326 505.7428 505.5342 505.3370 505.1939 505.0378 504.8973 504.7220 504.7178 504.7480 504.8394 505.0947 505.2158 505.4366 505.7108 506.0711 506.0611 505.9177 505.7589 -99999.0000 -99999.0000 -99999.0000 -99999.0000 -99999.0000 -99999.0000 -99999.0000 -99999.0000 -99999.0000 -99999.0000
507.9547 507.7295 507.0725 506.8297 506.8272 507.0708 507.4419 507.4070 507.1809 506.7203 506.3967 506.1523 506.1508 506.5184 506.5995 506.6061 506.6408 506.6391 506.6358 506.6671 506.7659 507.1606 507.4109 507.5514 507.4850 507.1019 506.9224 506.7683 506.6728 506.4774 506.1606 505.7131 505.1806 504.4800 503.8497 502.5609 501.2189 499.6201 499.1281 498.6259 498.2798 499.1389 499.2847 499.4405 499.6078 500.3081 500.6403 501.0883 501.5787 502.3777 502.7320 503.2427 503.8364 505.1717 505.6611 505.9655 506.1578 506.5986 506.7648 506.9313 507.1464 507.0463 506.9564 507.1692 507.3884 507.4155 507.5523 507.6581 507.6928 507.6103 507.7033 507.7988 507.8364 507.9287 508.1792 508.3828 508.4537 508.5396 508.5631 508.4859 508.3737 508.2678 508.2986 508.3788 508.5192 508.7019 508.7695 508.7555 508.6117 508.4116 508.3284 508.2842 508.0865 508.0258 508.4152 508.4377 508.3855 508.8586 508.9806 508.8950 508.7016 508.7155 508.6387 508.5616 508.5526 508.4825 508.4894 508.2789 508.2338 508.3773 508.4763 508.6092 508.8572 509.0060 508.9936 509.0173 508.9284 508.6517 508.4953 508.3697 508.4023 508.4273 508.2231 507.9931 507.9056 507.7936 507.7755 507.9598 507.9964 507.9281 508.0589 508.0137 507.7983 507.5870 507.4877 507.0420 506.5300 506.7664 506.9639 506.8210 506.5292 505.7764 505.7055 505.8622 506.1714 506.4648 506.3591 506.0533 505.5411 505.3750 505.3315 505.1700 505.2090 505.6402 505.7528 505.8213 505.8748 505.8323 505.6599 505.1646 504.9783 506.0458 506.3500 506.2575 505.9342 505.5619 505.5558 505.5067 505.4287 504.9185 504.9441 505.3386 505.7525 505.9745 505.8475 505.4897 505.3000 505.0825 505.0664 505.3499 505.8397 506.1002 506.0187 505.9587 505.9709 505.9361 505.8409 505.7555 505.8037 505.4749 504.9572 504.6689 505.3914 506.1425 506.3744 506.3892 506.2145 505.7966 505.8252 505.8300 505.6984 505.2433 505.1898 505.2330 505.2369 505.3950 505.7283 505.9102 505.9053 505.5901 505.3942 505.2216 505.2170 505.3502 505.2430 505.1205 504.9295 504.8092 505.1066 505.3255 505.5317 505.5130 505.4084 505.3886 505.5016 505.4891 505.4235 505.2877 505.3759 505.8698 505.8808 505.4533 505.0222 505.4106 505.8361 506.0664 506.1212 505.9333 505.9042 505.9000 505.7066 505.1470 505.2353 505.5939 505.8339 506.1219 506.1227 505.9480 505.8336 505.6831 505.5064 505.6197 505.6602 505.8255 505.8541 505.7480 505.6439 505.5202 505.3805 505.2022 505.0300 504.8414 504.8586 504.9389 505.0378 505.0897 505.0638 505.1430 505.3156 505.6733 505.7128 505.6175 505.5103 505.2963 -99999.0000 -99999.0000 -99999.0000 -99999.0000 -99999.0000 -99999.0000 -99999.0000 -99999.0000 -99999.0000
507.9703 508.0267 507.7803 507.3845 507.0541 506.9231 507.2314 507.2953 507.1059 506.8000 506.7000 506.4664 506.3836 506.4314 506.5328 506.5237 506.5631 506.5789 506.5204 506.5564 506.6447 506.9998 507.2263 507.3773 507.4041 507.1627 506.9245 506.7349 506.6013 506.3386 506.0833 505.7089 505.3120 504.6080 503.8973 502.6127 501.3236 499.6984 499.1148 498.5826 498.1633 499.0778 499.2487 499.3961 499.5565 500.2366 500.6655 501.0428 501.5306 502.3783 502.6892 503.1619 503.6992 504.8505 505.3811 505.7373 505.9144 506.4203 506.6642 506.9356 507.2006 507.2769 507.2439 507.3976 507.5223 507.4225 507.4700 507.5066 507.5833 507.5077 507.5606 507.6842 507.8336 508.0958 508.3798 508.5455 508.5791 508.4186 508.3606 508.2401 508.1166 508.0511 508.0453 508.0891 508.2055 508.4902 508.6214 508.6270 508.5375 508.1909 507.9373 507.8452 507.8609 507.9575 508.1958 508.3653 508.4147 508.9366 509.0989 509.1214 509.0474 508.9722 508.8945 508.8156 508.7005 508.2130 508.2500 508.1844 508.3305 508.7247 508.8750 509.0022 509.2148 509.1841 508.9459 508.7697 508.7012 508.6024 508.4488 508.3956 508.4250 508.3897 508.2377 508.1453 508.1250 507.8273 507.7605 507.8931 507.8730 507.7013 507.8195 507.7852 507.6158 507.7303 507.5736 507.1705 506.7897 506.7991 506.8944 506.6850 506.3348 505.7370 505.7955 506.0413 506.3422 506.3580 506.1089 505.8950 505.6078 505.3569 505.1713 505.0408 505.0864 505.5705 505.6872 505.7798 505.8247 505.9183 505.7520 505.1952 504.9377 506.1566 506.5083 506.4375 506.1052 505.6624 505.6187 505.5627 505.3480 504.9576 504.9933 505.2030 505.6516 506.1605 506.3223 505.9783 505.5464 505.2302 505.2151 505.5801 506.0778 506.1042 505.9139 505.8322 505.8425 505.9520 506.0231 505.9884 505.9091 505.4877 504.7430 505.0508 505.6801 506.1986 506.3072 506.2020 506.0133 505.5745 505.8002 505.7811 505.6867 505.3731 505.2863 505.2359 505.2367 505.4233 505.7550 505.9803 505.9612 505.6067 505.4744 505.3303 505.2462 505.1436 504.9464 504.8531 504.7567 504.7781 504.9724 505.2011 505.4353 505.5416 505.5025 505.5456 505.6555 505.6239 505.4745 505.3683 505.4452 505.8728 505.8731 505.5709 505.2292 505.5914 505.8535 505.9936 505.9771 505.6086 505.5947 505.6277 505.5364 505.0848 505.1930 505.5542 505.7922 505.9413 505.9689 505.8031 505.6742 505.5750 505.4275 505.4409 505.4520 505.6169 505.6059 505.5312 505.5049 505.5731 505.5170 505.3167 505.1252 505.0456 505.1158 505.1786 505.1742 504.9448 504.8067 504.7673 504.8295 505.1131 505.2095 505.2081 505.1749 504.9994 -99999.0000 -99999.0000 -99999.0000 -99999.0000 -99999.0000 -99999.0000 -99999.0000 -99999.0000 -99999.0000
507.3992 507.8923 508.0787 508.0797 507.9192 507.3919 507.3169 507.4026 507.3676 507.0712 506.9073 506.7594 506.5075 506.0167 506.0331 506.2509 506.3978 506.2341 506.2039 506.3330 506.4445 506.6617 506.7670 506.8744 506.9886 507.1827 507.0781 506.9816 506.8491 506.1501 505.8222 505.5416 505.2745 504.8011 504.0423 502.9275 501.6077 499.8022 499.1936 498.2503 498.3898 498.9936 499.2256 499.3716 499.5692 500.0802 500.5675 501.0512 501.4581 502.2342 502.5981 503.0016 503.4319 504.2606 504.8230 505.4345 505.8503 506.6731 506.8909 506.9684 507.0022 507.0845 507.1578 507.2541 507.2516 506.8599 506.6258 506.6628 506.9427 507.2767 507.3417 507.4250 507.5523 507.8861 508.1320 508.2584 508.2895 508.1458 508.0713 507.9689 507.8258 507.3834 507.3337 507.3598 507.5728 508.0880 508.2005 508.3405 508.5020 508.5022 508.3956 508.2328 508.1394 508.6337 508.6531 508.6695 508.7437 509.1258 509.1128 508.9886 508.9180 508.6092 508.3619 508.1658 507.8608 507.6950 508.0548 508.5461 508.8430 508.8141 508.8530 508.9472 508.9684 508.6834 508.4225 508.2427 508.3372 508.9248 508.5667 508.2648 508.1639 508.0701 508.1316 508.2001 508.1758 507.9261 507.6769 507.4312 507.2156 507.2899 507.4516 507.5833 507.5865 507.7861 507.6703 507.3708 506.9550 506.6256 506.6963 506.6867 506.5850 506.3811 506.3502 506.2414 506.2025 506.0467 505.9147 505.8759 505.8428 505.7619 505.6981 505.6027 505.4047 504.9771 504.9962 505.1630 505.1906 505.5425 505.4208 505.1376 505.4172 506.3464 506.4816 506.4525 506.2690 505.8298 505.7250 505.7114 505.3895 505.1702 505.3317 505.4339 505.6148 506.7841 507.2553 507.2177 506.6967 505.5794 505.8431 506.1913 506.3086 505.7906 505.6280 505.5352 505.4559 505.8292 505.9838 505.8161 505.5355 505.1355 504.6730 505.2776 505.5053 505.8966 505.9199 505.7545 505.4142 505.4267 505.2305 505.3673 505.4967 505.4178 505.2331 505.1636 505.1683 505.4253 505.7634 505.9598 505.9912 505.8453 505.6709 505.4402 505.2942 504.9216 504.7648 504.9113 504.8845 505.2305 505.2469 505.3397 505.3174 505.2020 505.1806 505.3412 505.6258 505.6070 505.3681 505.3441 505.4806 505.8098 505.8130 505.6506 505.4497 505.5834 505.6328 505.6050 505.4328 505.0648 505.0244 505.0847 505.2975 505.6325 505.6998 505.8431 505.8553 505.5978 505.6820 505.7708 505.7850 505.7700 505.5502 505.1539 504.9753 504.9819 505.1139 505.2661 505.3212 505.5201 505.5758 505.4625 505.3264 505.3951 505.4053 505.2145 504.8945 504.3897 504.2661 504.1935 504.1925 504.4231 504.6441 504.8253 504.9150 504.8340 504.6141 -99999.0000 -99999.0000 -99999.0000 -99999.0000 -99999.0000 -99999.0000 -99999.0000 -99999.0000
507.1703 507.7142 507.9633 508.1233 508.0959 507.4933 507.3247 507.3608 507.4305 507.2453 507.0784 506.9069 506.7344 506.0854 506.0570 506.1541 506.2822 506.2020 506.1844 506.2395 506.3395 506.5767 506.6825 506.7852 506.9019 507.0991 507.0559 507.0480 506.9558 506.2244 505.8690 505.5833 505.2794 504.7333 504.0077 502.9455 501.7059 499.9178 499.2055 498.1280 498.4628 499.0083 499.2383 499.3414 499.5233 500.1237 500.7161 501.2773 501.7361 502.2684 502.5859 502.9489 503.3627 504.1517 504.7580 505.4422 505.8858 506.8627 507.1553 507.0894 506.8714 506.6713 506.8236 507.0112 507.0565 506.7151 506.5209 506.5317 506.8376 507.2292 507.2356 507.2803 507.3792 507.7375 507.9197 508.0100 508.0652 508.0088 507.8841 507.7775 507.7200 507.2741 507.2745 507.4150 507.6483 507.8856 507.9948 508.2719 508.5722 508.7267 508.6358 508.5034 508.2297 508.7122 508.8089 508.8856 508.9428 509.0781 508.9500 508.7162 508.4898 507.8775 507.8145 507.7090 507.4841 507.7697 508.2441 508.7106 508.9494 508.8305 508.7231 508.7094 508.6220 508.2756 508.0934 508.0650 508.3267 508.9700 508.5573 508.2677 508.1694 508.0419 508.0573 508.0537 507.9728 507.7364 507.5769 507.3452 507.1423 507.2975 507.4658 507.5522 507.4933 507.5244 507.5141 507.3250 506.9470 506.5576 506.6819 506.7652 506.6750 506.3795 506.2599 506.0714 506.0170 506.0060 505.9819 505.9306 505.9095 505.6519 505.4967 505.3950 505.2681 504.9785 504.9626 505.0025 505.0178 505.2112 505.1178 505.0522 505.5163 506.3284 506.3880 506.3830 506.2655 505.8767 505.7933 505.6975 505.3873 505.1677 505.3703 505.4427 505.5320 506.6635 507.2861 507.4067 506.9223 505.8320 506.0911 506.3365 506.2228 505.6412 505.4795 505.3027 505.1831 505.7184 505.8456 505.5258 505.1870 504.9286 504.6769 505.2056 505.3053 505.6039 505.7075 505.6333 505.3678 505.1859 505.1526 505.1855 505.2683 505.1927 505.1869 505.2155 505.2136 505.4441 505.8269 506.0692 506.1386 505.9978 505.7740 505.5183 505.3284 504.8839 504.7539 504.8488 504.9462 505.4136 505.4469 505.5113 505.5060 505.3916 505.3667 505.3597 505.3134 505.5886 505.3238 505.3073 505.5189 505.7745 505.7339 505.5145 505.2745 505.2664 505.3252 505.2044 505.2086 505.2451 505.0481 504.9984 505.3417 505.9362 505.9135 505.8491 505.7500 505.4774 505.6669 505.8578 505.9434 505.9166 505.6541 505.2431 504.9697 504.9727 505.1299 505.2153 505.1319 505.3102 505.3867 505.3275 505.2483 505.2919 505.2227 504.9559 504.6217 504.1609 504.0180 503.9081 503.9016 504.1731 504.4231 504.6147 504.7303 504.9358 504.8716 504.5106 -99999.0000 -99999.0000 -99999.0000 -99999.0000 -99999.0000 -99999.0000 -99999.0000
507.0789 507.7117 507.9203 508.0531 508.1216 507.5917 507.3709 507.3362 507.4303 507.3472 507.2039 507.0575 506.8603 506.0834 506.0642 506.1578 506.2564 506.2400 506.2126 506.1858 506.2239 506.5289 506.6380 506.7498 506.8769 507.0623 507.0119 506.9452 506.8489 506.2130 505.8383 505.5197 505.1975 504.6406 503.8722 502.8908 501.7090 500.0013 499.1669 498.0683 498.4239 498.9320 499.1705 499.2792 499.5064 500.1453 500.7050 501.3286 501.7963 502.3212 502.5547 502.8584 503.2712 504.0377 504.5811 505.2734 505.8111 506.9308 507.2253 507.0705 506.6797 506.3577 506.5694 506.7709 506.9238 506.8430 506.6767 506.6917 506.9216 507.1808 507.1069 507.0783 507.1490 507.5787 507.7567 507.7975 507.8359 507.7852 507.6186 507.5703 507.7022 507.3687 507.4025 507.7236 508.0091 507.8853 508.0097 508.3908 508.7644 508.9261 508.8002 508.6205 508.3163 508.6003 508.7305 508.8398 508.8716 508.7903 508.6669 508.4277 508.1120 507.6203 507.5564 507.4389 507.4575 508.0619 508.4786 508.8067 508.9587 508.7714 508.4911 508.2238 508.0583 508.0269 507.8398 507.9225 508.3455 508.9608 508.5312 508.2895 508.1561 508.0150 507.9995 507.9169 507.8136 507.6014 507.5300 507.3858 507.1714 507.2423 507.4955 507.6564 507.5336 507.3001 507.3188 507.2523 507.0666 506.6947 506.6780 506.7109 506.5898 506.2542 506.1236 505.9903 505.9772 506.1525 506.1942 506.1497 506.0872 505.5331 505.1966 505.1361 505.2636 505.2066 505.0991 505.0992 505.0919 505.1145 505.0402 505.0572 505.4725 506.2372 506.2933 506.2911 506.1739 505.8467 505.7698 505.6716 505.4169 505.2000 505.3395 505.4146 505.4572 506.3655 507.0739 507.3784 506.9681 506.0338 506.1938 506.2542 506.0291 505.4933 505.2783 505.1330 505.0694 505.6320 505.7109 505.3875 505.0567 504.7899 504.6324 504.9294 505.0052 505.2105 505.4270 505.6575 505.4164 505.2881 505.1600 505.1594 505.3516 505.3951 505.2719 505.2177 505.2549 505.5550 505.9486 506.1823 506.1998 505.9089 505.7173 505.5081 505.3375 504.8934 504.7447 504.9075 504.9641 505.5289 505.6072 505.6303 505.6002 505.4727 505.5319 505.6319 505.4501 505.1906 505.1308 505.1409 505.2327 505.4937 505.4550 505.2459 504.9556 505.1277 505.1666 505.2039 505.4972 505.6164 505.4872 505.4731 505.7141 506.0124 505.9089 505.7305 505.5795 505.6328 505.8639 506.0027 506.0302 505.9177 505.7022 505.3683 505.1472 505.0803 505.1572 505.1511 504.9847 505.0639 505.1808 505.1370 505.0386 505.0691 504.9912 504.7434 504.4344 503.8592 503.6406 503.5016 503.4986 503.8733 504.1800 504.4122 504.5870 505.0716 505.1451 504.8492 -99999.0000 -99999.0000 -99999.0000 -99999.0000 -99999.0000 -99999.0000 -99999.0000
507.1000 507.7625 507.9572 508.1322 508.2044 507.7747 507.5867 507.4894 507.4789 507.4045 507.2652 507.1023 506.8850 506.3633 506.2939 506.3869 506.3975 506.3984 506.3141 506.2106 506.1852 506.5140 506.6300 506.7291 506.8240 506.9980 506.8953 506.7486 506.6586 506.0774 505.7177 505.4291 505.1203 504.6203 503.8436 503.0691 501.9233 500.0753 499.1850 498.1205 498.2930 498.9058 499.1330 499.2461 499.4550 500.1295 500.7126 501.3297 501.7687 502.3606 502.5534 502.8211 503.1790 503.9298 504.3535 504.9619 505.5978 506.7050 506.9608 506.8499 506.5392 506.3761 506.5303 506.7025 506.9517 507.1878 507.1191 507.1036 507.1759 507.2466 507.1047 507.0069 507.0598 507.4870 507.6812 507.7033 507.7064 507.6897 507.6347 507.7075 507.8903 507.7437 507.7952 508.2030 508.4777 508.1977 508.2755 508.6455 509.0122 509.1038 508.8086 508.5502 508.2137 508.2634 508.4195 508.5139 508.5433 508.4939 508.3841 508.2328 507.9916 507.5870 507.5063 507.4858 507.6425 508.2056 508.5424 508.7366 508.8380 508.5780 508.1602 507.6816 507.5972 507.8697 507.6664 507.8566 508.3400 508.8431 508.4373 508.2310 508.0875 508.0334 508.0083 507.8873 507.7636 507.5422 507.4586 507.3737 507.2823 507.2762 507.5417 507.7219 507.6264 507.2366 507.2439 507.2175 507.1674 506.8428 506.6652 506.6134 506.4873 506.1678 506.0042 505.8911 505.9520 506.1597 506.2436 506.2659 506.1881 505.6753 505.4708 505.4550 505.5592 505.5947 505.5089 505.4255 505.3369 505.0988 505.0876 505.1705 505.5148 506.1084 506.1561 506.1358 506.0164 505.7462 505.6775 505.6074 505.4398 505.1941 505.2644 505.4620 505.5473 506.1167 506.7148 507.1450 506.9642 506.1925 506.1429 506.0414 505.8292 505.3011 505.1324 505.0298 505.0094 505.4669 505.5305 505.3905 505.1211 504.6192 504.4780 504.5600 504.5967 504.6812 504.7678 505.6761 505.3858 505.3259 505.0513 505.1111 505.3603 505.5247 505.3303 505.2011 505.2656 505.7134 505.9811 506.0853 506.0131 505.6758 505.5856 505.4698 505.3690 505.0983 504.8376 504.8311 504.9686 505.5555 505.6680 505.6583 505.5961 505.5523 505.6250 505.7139 505.5986 505.0883 505.0603 505.1833 505.3675 505.3884 505.2956 505.1453 505.0047 505.1872 505.1934 505.2877 505.5511 505.8766 505.8791 505.8884 505.9761 505.9225 505.7073 505.4622 505.3436 505.7584 506.0198 506.0842 505.9869 505.7706 505.6544 505.4498 505.4697 505.2987 505.1686 505.0509 504.9211 504.9551 505.0594 505.0098 504.9124 504.8808 504.8027 504.5777 504.2897 503.5576 503.3401 503.1898 503.1744 503.6172 504.0030 504.3027 504.5317 505.1345 505.2878 505.0592 504.5008 -99999.0000 -99999.0000 -99999.0000 -99999.0000 -99999.0000 -99999.0000
506.8250 507.4164 507.6700 508.0308 508.3308 508.1002 507.8433 507.6130 507.4661 507.3433 507.2033 507.0461 506.8549 506.6116 506.6280 506.6741 506.6675 506.5430 506.4672 506.3173 506.2417 506.5300 506.6241 506.7015 506.7933 506.7006 506.5192 506.3002 506.1328 505.6473 505.4230 505.2473 505.0017 504.7198 504.1902 503.4892 502.2083 500.2441 499.4836 498.3695 498.1731 498.6125 499.0275 499.2078 499.3139 500.0125 500.6752 501.3212 501.7914 502.4345 502.5688 502.7816 503.1294 503.7036 504.0060 504.3791 504.8367 505.6780 506.0281 506.3541 506.6867 507.0786 506.9920 506.9692 507.1919 507.6855 507.6900 507.6386 507.6256 507.7927 507.7767 507.7109 507.6803 507.8198 507.9480 507.9608 507.9409 508.0230 508.1490 508.2816 508.3889 508.3956 508.4806 508.7808 508.9747 508.6197 508.5636 508.7644 509.0186 508.9383 508.5430 508.2428 507.9091 507.4822 507.4920 507.6536 507.9897 508.2939 508.1837 508.0853 507.9892 507.7609 507.9626 508.0641 508.1278 508.4105 508.4312 508.3078 508.2139 508.1766 507.9242 507.5769 507.6355 507.9047 508.0402 508.3020 508.4626 508.2914 507.7961 507.6172 507.6836 508.2067 508.2070 508.0691 507.9164 507.5009 507.3185 507.1369 507.1705 507.4750 507.4292 507.2827 507.3097 507.2481 507.1881 507.1256 507.0420 506.8528 506.6767 506.5341 506.3759 506.1473 505.9445 505.6974 505.6831 505.6522 505.7270 505.8766 506.0317 506.1944 506.0936 505.8673 505.6820 505.4909 505.6003 505.7425 505.7678 505.3825 505.2151 505.1925 505.5886 505.8709 505.8034 505.7314 505.5981 505.4709 505.5189 505.5406 505.4548 505.2880 505.3395 505.6653 505.9619 506.2075 506.3359 506.5338 506.5405 505.9653 505.7277 505.6231 505.5305 505.0969 504.9928 504.8056 504.8595 504.7384 504.6047 504.7050 504.8667 504.7695 504.6738 504.6853 504.8414 504.8730 505.0031 505.3830 505.4408 504.6252 504.8753 505.2147 505.5826 505.7387 505.5908 505.4964 505.5752 505.9248 505.6972 505.4698 505.4180 505.5045 505.5133 505.4678 505.4517 505.3541 505.2844 505.0427 504.7549 505.2422 505.3492 505.3416 505.2866 505.3962 505.5820 505.8188 505.8288 505.3597 505.3178 505.3416 505.4474 505.6512 505.6259 505.4803 505.3664 505.3828 505.5865 505.8166 506.0103 505.9700 505.8063 505.6878 505.5864 505.3130 505.2516 505.3328 505.4236 505.4828 505.6913 505.7605 505.6294 505.4536 505.5389 505.7252 505.7935 505.8014 505.7566 505.6870 505.6008 505.3706 505.2681 505.0903 504.9333 504.7740 504.6302 504.4034 504.0786 503.4405 503.1845 503.1428 503.2065 503.4986 503.8314 504.1955 504.5559 505.0222 505.1431 505.0797 504.8675 -99999.0000 -99999.0000 -99999.0000 -99999.0000 -99999.0000 -99999.0000
506.5992 507.0939 507.4828 507.7549 508.1077 508.0991 507.8047 507.5569 507.4320 507.3098 507.1253 506.9544 506.7805 506.5867 506.6341 506.6978 506.6958 506.4266 506.3503 506.3342 506.4292 506.4936 506.5483 506.6367 506.7580 506.6633 506.4547 506.2650 506.0251 505.5120 505.3419 505.1567 504.9213 504.6959 504.0814 503.4206 502.1652 500.2678 499.5806 498.6156 498.1302 498.3109 498.3964 498.9236 499.1786 499.9855 500.6453 501.3016 501.8242 502.4258 502.5325 502.7181 502.9806 503.5350 503.8613 504.1833 504.5223 505.3045 505.8280 506.3959 506.8416 507.3008 507.2214 507.1844 507.2831 507.5856 507.5730 507.4888 507.4775 507.7316 507.7759 507.7162 507.6949 507.7863 507.8998 507.9445 507.9767 508.0953 508.1842 508.2984 508.3925 508.4589 508.5808 508.8023 508.9327 508.6864 508.6716 508.7906 508.9177 508.7941 508.4467 508.2065 507.9578 507.4138 507.3414 507.3711 507.6952 508.3367 508.2292 508.0652 507.9358 507.7203 507.9381 508.0778 508.1653 508.3716 508.3470 508.1578 507.9888 508.0117 507.7611 507.7492 507.9672 508.1261 508.2844 508.4111 508.3600 507.9139 507.5117 507.4059 507.5662 508.1975 508.1966 508.0672 507.9077 507.5587 507.3433 507.0822 507.0166 507.3095 507.1936 507.0403 507.2126 507.2230 507.0811 507.0784 507.0644 506.8539 506.6453 506.4583 506.3281 506.2519 506.1166 505.8997 505.7344 505.3436 505.3425 505.6297 506.0212 506.1627 506.0130 505.7791 505.4933 505.1270 505.2305 505.4877 505.7056 505.4645 505.2608 505.1440 505.5206 505.8283 505.6998 505.5483 505.4552 505.2830 505.4551 505.5338 505.4270 505.1714 505.3799 505.8233 506.0523 506.0609 506.0900 506.2022 506.2002 505.7689 505.6336 505.5747 505.5106 505.0050 504.8645 504.6903 504.6663 504.7786 505.0628 505.2433 505.1473 504.8513 504.8153 504.8192 505.0286 505.2513 505.2658 505.3714 505.5291 505.1247 504.7889 505.4783 505.8272 505.8552 505.7373 505.6862 505.7230 505.9008 505.6556 505.4370 505.3919 505.5261 505.5075 505.4294 505.4001 505.3608 505.2980 505.1591 504.8158 505.0920 505.1955 505.1742 505.1194 505.2572 505.5492 505.8664 505.9188 505.5356 505.4761 505.4369 505.4691 505.6739 505.7128 505.6503 505.5612 505.6223 505.8712 506.0366 506.1413 505.8575 505.5247 505.3086 505.1746 505.1706 505.3106 505.6233 505.7955 505.4208 505.3134 505.3044 505.3141 505.3864 505.5236 505.7056 505.8295 506.0870 506.1209 506.0744 505.9377 505.4992 505.2591 505.0067 504.8041 504.6381 504.5211 504.3050 504.0747 503.5422 503.2144 503.1613 503.2005 503.4291 503.6494 504.0287 504.4397 504.9792 505.0783 504.9816 504.7924 504.5297 -99999.0000 -99999.0000 -99999.0000 -99999.0000 -99999.0000
506.3814 506.8859 507.2708 507.5178 507.8334 508.0330 507.7658 507.5259 507.4288 507.2111 506.9631 506.7594 506.5736 506.4800 506.6058 506.7155 506.6978 506.3408 506.2726 506.3505 506.4803 506.4615 506.5002 506.6131 506.7778 506.7983 506.5802 506.3817 506.0994 505.5261 505.3225 505.1042 504.8658 504.6656 504.0152 503.3272 502.1323 500.4012 499.5092 498.4717 498.0986 498.3195 498.2408 498.6180 499.0209 499.8687 500.5141 501.1734 501.6891 502.3678 502.4795 502.6514 502.8369 503.3678 503.7388 504.0550 504.3634 505.1705 505.8961 506.5484 506.9605 507.2267 507.1730 507.1945 507.2439 507.2252 507.2067 507.1320 507.1291 507.4592 507.5512 507.5070 507.5025 507.6006 507.7161 507.8123 507.9265 508.1291 508.2151 508.3092 508.3731 508.4519 508.5901 508.7411 508.8013 508.7159 508.7589 508.8228 508.8169 508.6830 508.3499 508.1127 507.9170 507.4108 507.3017 507.3265 507.5508 508.3990 508.2994 508.0656 507.8477 507.6635 507.8739 508.0342 508.1317 508.2050 508.2022 508.1109 507.8948 507.6620 507.5489 507.8877 508.1431 508.3236 508.4009 508.3334 508.0555 507.6046 507.4828 507.5086 507.6416 508.1000 508.1313 508.0486 507.9453 507.6888 507.4833 507.1660 507.0128 507.0141 506.9914 507.0478 507.2403 507.1131 506.9636 506.9548 506.9983 506.8614 506.6136 506.3973 506.2952 506.3156 506.2006 506.0211 505.8253 505.2114 505.1592 505.4731 505.8937 505.9892 505.8588 505.6453 505.3053 505.0670 505.0283 505.2120 505.5384 505.4514 505.2495 505.0698 505.2770 505.8159 505.6961 505.4836 505.3614 505.1614 505.4059 505.4902 505.2272 504.9713 505.3019 505.6966 505.8636 505.7946 505.8406 505.9113 505.9084 505.6638 505.6461 505.6355 505.5639 505.0217 504.7662 504.5997 504.5986 505.0761 505.2533 505.3522 505.2425 504.9951 504.9855 504.9578 505.1794 505.6116 505.5844 505.5103 505.5363 505.3849 504.7842 505.6653 505.9347 505.7963 505.6681 505.6228 505.6092 505.7595 505.7467 505.5648 505.4402 505.4820 505.4767 505.4091 505.4322 505.4444 505.3661 505.2058 504.8925 504.8945 505.1072 505.0600 504.9581 505.1359 505.5472 505.9135 505.9800 505.5969 505.5445 505.4775 505.4486 505.6208 505.7175 505.7106 505.6306 505.5602 505.9301 506.0533 506.0953 505.5858 505.1744 504.8979 504.8311 505.1491 505.4452 505.8439 506.0758 505.6475 505.4048 505.2806 505.2516 505.3416 505.4161 505.6044 505.8072 506.2112 506.2701 506.2211 506.0461 505.4841 505.1036 504.7075 504.4492 504.3914 504.4306 504.4205 504.3114 503.7569 503.3856 503.2150 503.0798 503.2111 503.3937 503.7675 504.2011 504.8634 504.9972 504.8745 504.6209 504.3723 504.3003 -99999.0000 -99999.0000 -99999.0000 -99999.0000
506.3087 506.7684 507.1194 507.3870 507.6722 508.0038 507.7855 507.5359 507.3719 507.0208 506.7330 506.4719 506.2641 506.3486 506.6250 506.7676 506.7023 506.3153 506.2494 506.2911 506.3620 506.4139 506.4870 506.6091 506.8016 506.9498 506.7720 506.5889 506.2589 505.6442 505.3831 505.1317 504.8592 504.6266 504.0747 503.3911 502.1959 500.5428 499.1764 498.2695 498.2277 498.1820 498.2939 498.3778 498.9590 499.7789 500.3831 501.0617 501.5981 502.2614 502.4425 502.5755 502.7506 503.2776 503.6605 503.9842 504.2664 505.2111 505.9850 506.5681 506.8553 506.8458 506.8081 506.9008 506.9719 506.8058 506.7881 506.7739 506.8125 507.1783 507.3103 507.3226 507.3527 507.4805 507.6075 507.7470 507.9366 508.2211 508.3051 508.3866 508.4417 508.5108 508.6348 508.7233 508.6845 508.6302 508.6897 508.7599 508.7167 508.5456 508.2313 507.9997 507.8516 507.3706 507.2517 507.3266 507.5603 508.3962 508.3287 508.0463 507.7878 507.6517 507.8164 507.9547 508.0344 507.9650 507.9853 507.9934 507.8136 507.4820 507.6336 508.0633 508.3055 508.4225 508.2897 508.0459 507.6412 507.3669 507.5352 507.6702 507.7249 507.9919 508.0891 508.0974 508.0366 507.7761 507.5950 507.3256 507.1102 507.2228 507.2997 507.4356 507.4472 507.0464 506.9277 506.8700 506.9478 506.7516 506.5102 506.3177 506.2617 506.2934 506.1792 506.0251 505.8730 505.1606 505.0916 505.3409 505.6469 505.8130 505.7452 505.5474 505.2661 505.1219 505.0572 505.1798 505.4255 505.4625 505.3041 505.0431 505.0527 505.8235 505.8398 505.5903 505.3962 505.2213 505.4117 505.3656 505.1078 505.0581 505.2387 505.3850 505.4975 505.4284 505.4866 505.6486 505.7191 505.6028 505.6317 505.6380 505.5831 504.9869 504.7422 504.6864 504.8367 505.0030 505.0723 505.1483 505.2747 505.2377 505.2628 505.2978 505.5191 505.8405 505.7322 505.5522 505.5777 505.5169 504.7227 505.6345 505.7894 505.5217 505.3510 505.3546 505.4283 505.7425 505.8997 505.8239 505.5881 505.3983 505.4487 505.5480 505.6370 505.6303 505.4650 505.2345 505.0089 504.7844 504.9906 505.0308 504.9986 505.1156 505.5603 505.9192 505.9677 505.5240 505.4431 505.4124 505.3850 505.5212 505.6591 505.7114 505.6509 505.3780 505.6380 505.8016 505.8649 505.3687 504.9785 504.7992 504.8573 505.0734 505.3940 505.7817 506.1792 506.1641 505.8705 505.6789 505.5427 505.3200 505.3291 505.5114 505.7847 506.2125 506.2392 506.1325 505.9439 505.3861 504.9109 504.4205 504.2448 504.4783 504.6148 504.5831 504.5020 503.9323 503.4730 503.2330 503.0251 503.0761 503.2361 503.5023 503.9149 504.6686 504.8838 504.8222 504.5609 504.1892 503.9794 503.7492 503.5525 -99999.0000 -99999.0000
506.4367 506.7842 507.1016 507.3086 507.6039 507.9778 507.7664 507.4833 507.2130 506.6398 506.3289 505.9364 505.7359 506.1930 506.5144 506.6692 506.6103 506.2827 506.0833 506.0485 506.1130 506.2156 506.3091 506.4606 506.6745 506.8806 506.8600 506.8370 506.6526 506.0955 505.6675 505.2830 504.9788 504.6878 504.2197 503.7552 502.4211 500.7542 499.1372 498.2570 498.0845 498.0761 498.0506 498.3344 498.9513 499.6902 500.0345 500.7486 501.4034 502.0955 502.3756 502.5028 502.7155 503.3216 503.6737 504.0244 504.2800 505.0269 505.3689 505.6558 505.8750 506.0900 506.1638 506.2206 506.2292 506.2068 506.2736 506.3405 506.4366 506.8742 507.0733 507.2108 507.3431 507.5605 507.6828 507.8230 508.0686 508.4516 508.4767 508.4895 508.5974 508.9216 508.8616 508.6564 508.4306 508.1866 508.1652 508.2242 508.2928 508.3214 508.0730 507.7910 507.6267 507.3606 507.4367 507.5714 507.7508 508.4160 508.3077 508.0105 507.7776 507.5531 507.6066 507.7289 507.7336 507.4647 507.4791 507.6888 508.0273 508.2272 508.3617 508.5009 508.4041 508.0859 507.8778 507.5630 507.3953 507.6523 507.5133 507.6367 507.7144 507.6749 507.8936 508.1225 508.1388 507.8227 507.7345 507.7291 507.7434 508.2064 508.3644 508.3703 508.1241 507.0881 506.8072 506.7850 506.9380 506.5916 506.3609 506.2333 506.2481 506.2581 506.1380 506.0736 506.0394 505.6519 505.5053 505.4445 505.4233 505.4756 505.7447 505.7622 505.6230 505.2736 505.3594 505.5125 505.5814 505.6861 505.7462 505.6195 505.2998 505.5464 505.9026 506.0187 505.9359 505.6588 505.6674 505.6045 505.5537 505.4467 505.3408 505.0698 505.0361 505.0553 505.0003 505.1100 505.1606 505.4969 505.5386 505.5100 505.4405 504.7878 505.1856 505.3550 505.4019 505.1425 505.1406 505.2188 505.3434 505.8392 505.9677 506.0278 506.1047 505.7347 505.4259 505.2659 505.1255 505.1750 504.6902 505.1645 505.2072 504.9681 505.0127 505.2589 505.5995 506.1164 506.1616 505.9466 505.5767 505.3888 505.5472 505.7369 505.8672 505.8025 505.5413 505.1589 504.8508 505.0091 504.9948 504.9730 504.9484 505.1216 505.2626 505.3994 505.4573 505.3312 505.2258 505.1759 505.2997 505.6158 505.7747 505.8516 505.7086 505.1791 505.0941 505.0881 505.1057 505.0162 504.8492 504.7917 504.7944 504.9069 505.0005 505.2637 505.6292 506.4430 506.5873 506.6050 506.4794 505.7748 505.6888 505.8527 506.0397 506.1111 505.9320 505.7233 505.5478 505.1805 504.8095 504.4003 504.2725 504.6398 504.7310 504.7200 504.7036 504.0961 503.5695 503.2345 503.1669 503.0602 503.0349 503.2166 503.3417 504.0916 504.4744 504.7377 504.7073 504.3252 504.0042 503.7773 503.7595 503.6334 503.3575
506.6313 506.9973 507.2238 507.3942 507.6681 507.9269 507.7261 507.4292 507.1252 506.5456 506.2289 505.8228 505.7206 506.1483 506.4356 506.5891 506.5795 506.3142 506.1038 505.9680 505.9545 506.0733 506.2255 506.3581 506.5602 506.8234 506.8119 506.8433 506.7961 506.1674 505.7670 505.3862 505.0964 504.7467 504.2942 503.7009 502.4961 500.5586 499.5772 498.4945 498.1974 497.9698 498.0837 498.3269 498.9831 499.7284 499.9389 500.5034 501.1816 501.9877 502.2970 502.4739 502.6758 503.2684 503.6013 503.9367 504.2117 504.8652 505.1780 505.5619 505.8438 506.0569 506.0431 506.0253 506.0444 506.0942 506.1505 506.2376 506.3870 506.9606 507.1403 507.2577 507.3828 507.5883 507.7037 507.8661 508.1225 508.4756 508.4809 508.4991 508.6548 509.0067 508.8067 508.4891 508.2613 507.9336 508.0031 508.1074 508.1958 508.1808 508.0002 507.6627 507.4684 507.4008 507.6378 507.7106 507.8256 508.3783 508.2533 507.9708 507.7400 507.3808 507.3397 507.4916 507.4720 507.2442 507.3431 507.7131 508.0958 508.2447 508.2780 508.3095 508.1074 507.6717 507.5669 507.4647 507.4641 507.6847 507.6216 507.7400 507.7423 507.4719 507.7544 507.9919 508.0266 507.9011 507.8345 507.8948 507.9745 508.2978 508.3889 508.3794 508.1553 507.1440 506.7330 506.6730 506.8513 506.5781 506.3447 506.1853 506.1773 506.1635 506.0731 506.0386 506.0916 506.0700 505.9350 505.7811 505.6900 505.6244 505.8848 505.9659 505.9208 505.5512 505.5105 505.6069 505.7059 505.7798 505.8072 505.7419 505.5083 505.3109 505.7437 505.9622 505.9580 505.6816 505.6522 505.5878 505.5116 505.1088 505.0088 504.9026 504.9128 504.9472 504.9305 505.0137 505.0617 505.4155 505.4052 505.2792 505.0356 504.8381 504.9888 505.2427 505.3961 505.2180 505.1580 505.1306 505.2617 505.9133 506.0758 506.1694 506.2072 505.5113 505.2856 505.2361 505.1633 504.8614 504.5959 504.9174 504.9877 505.0828 505.3244 505.6703 505.9577 506.1789 506.1420 505.9587 505.7373 505.4984 505.5511 505.6900 505.7367 505.7341 505.5176 505.1283 504.8834 505.0539 505.1060 505.0334 504.9883 505.2609 505.5038 505.7825 506.0078 505.7630 505.3922 505.2353 505.3849 505.7583 505.9145 505.9533 505.8108 505.2022 505.0258 504.8475 504.8570 504.9099 504.8569 504.8023 504.8062 504.9680 505.0061 505.1128 505.3089 506.0991 506.3436 506.4628 506.4492 506.0220 505.9587 506.0772 506.2260 506.0444 505.7947 505.5934 505.4409 505.1772 504.9312 504.5647 504.3780 504.7433 504.8298 504.8641 504.8478 504.1201 503.6100 503.2722 503.1099 503.0227 503.0170 503.0363 503.1744 503.8075 504.2241 504.5833 504.6980 504.4048 504.1739 504.0642 504.0380 503.8219 503.5152
506.8542 507.2112 507.3156 507.5049 507.7620 507.8244 507.6483 507.3389 507.0084 506.4217 506.1613 505.7872 505.7112 506.1125 506.3929 506.5498 506.5751 506.3605 506.1685 505.9953 505.9359 506.0339 506.1244 506.2842 506.4922 506.7992 506.8069 506.7994 506.7477 506.1556 505.8252 505.5400 505.2523 504.7950 504.2595 503.7656 502.5303 500.5236 499.9127 498.9989 498.4124 497.9563 498.0200 498.5402 499.0867 499.7244 499.8830 500.2081 500.9086 501.9813 502.2585 502.4836 502.6859 503.2427 503.5559 503.9094 504.2286 504.8499 505.2889 505.7925 506.1675 506.2944 506.1228 506.0042 505.9780 506.0503 506.1138 506.2128 506.4253 507.0739 507.2141 507.3133 507.4270 507.6010 507.7422 507.9481 508.2194 508.4645 508.4591 508.5041 508.7003 508.9601 508.6591 508.3317 508.0922 507.7247 507.9044 508.0605 508.1234 508.0847 507.9245 507.6033 507.3930 507.4579 507.6211 507.7073 507.8531 508.2819 508.1206 507.8614 507.6581 507.2511 507.2117 507.3012 507.2831 507.2292 507.2820 507.5706 507.9661 508.0036 507.9511 507.9702 507.8588 507.3289 507.3192 507.3509 507.2184 507.4698 507.6750 507.8227 507.7505 507.4724 507.7058 507.9323 508.0215 508.0078 507.8459 507.8525 508.0541 508.2631 508.2572 508.2378 508.1328 507.4124 506.9333 506.7913 506.9180 506.6227 506.3577 506.1978 506.1617 506.0780 505.9551 505.9495 506.0287 506.1700 506.1383 506.0377 505.9708 505.9242 506.0481 506.1000 506.0614 505.8080 505.6691 505.6714 505.7633 505.8494 505.8264 505.6544 505.4091 505.1089 505.4980 505.7428 505.7056 505.5219 505.4445 505.2822 505.2197 504.7969 504.7798 504.7350 504.7411 504.7483 504.7833 504.8312 504.9463 505.0200 504.9495 504.8216 504.8599 505.0291 504.8948 504.8524 505.0667 505.1359 505.1501 505.1341 505.2900 505.8969 506.0759 506.2128 506.1219 505.3283 505.2461 505.2922 505.1723 504.8805 504.5941 504.7906 504.8700 505.2383 505.6299 506.0675 506.3128 506.1845 506.0339 505.9102 505.8256 505.6297 505.5020 505.5894 505.5641 505.6083 505.2842 504.9614 504.9069 505.1134 505.1649 505.1798 505.2636 505.3145 505.5917 505.9441 506.2858 505.9916 505.5256 505.2753 505.4225 505.8872 506.0352 506.0319 505.8778 505.2450 505.1127 504.9780 504.8989 505.0577 505.1095 504.9473 504.9088 505.1085 505.2291 505.1855 505.2242 505.7838 506.0055 506.1659 506.2249 506.1162 506.0908 506.1725 506.2705 505.9478 505.6688 505.4777 505.3578 505.2167 505.0633 504.7581 504.6206 504.9114 505.0345 505.1194 505.0011 504.1550 503.6475 503.2709 503.0925 502.9830 502.9814 503.0327 503.0972 503.6542 504.0752 504.4487 504.6671 504.4472 504.2558 504.1688 504.1120 503.7406 503.4987
507.1475 507.1745 507.3511 507.6014 507.8058 507.6859 507.5403 507.2448 506.8880 506.3258 506.0914 505.8544 505.7764 506.1047 506.3340 506.4713 506.5175 506.3925 506.1992 505.9889 505.8989 505.9534 506.0402 506.2519 506.4850 506.8433 506.8198 506.7559 506.7052 506.1597 505.8923 505.6894 505.3745 504.7709 503.9914 503.3114 502.5603 500.5622 500.1450 499.4789 498.8802 497.9359 497.9022 498.4700 499.5205 499.6983 499.8619 500.1733 500.8692 501.8556 502.1983 502.4569 502.6644 503.2283 503.6003 504.0013 504.3250 504.8020 505.2420 505.8392 506.3767 506.4539 506.2387 506.0794 506.0331 506.0809 506.1400 506.2691 506.4989 507.1537 507.2853 507.3852 507.4772 507.6038 507.7781 508.0364 508.2578 508.4527 508.4442 508.4883 508.6739 508.7991 508.4997 508.2151 507.8650 507.6697 507.8808 508.1584 508.1911 508.0197 507.8178 507.5323 507.3803 507.4940 507.5363 507.6451 507.8092 508.1367 507.9198 507.6886 507.5089 507.2550 507.2327 507.2481 507.2695 507.4078 507.4019 507.6336 507.9972 507.8591 507.7233 507.7867 507.8550 507.4520 507.3723 507.3598 507.1431 507.5436 507.6642 507.7633 507.7316 507.6656 507.7764 507.9800 508.1539 508.1225 507.8354 507.7274 508.0237 508.2173 508.1406 508.0812 508.0583 507.6373 507.2264 506.9892 506.9720 506.6006 506.3937 506.2519 506.2137 506.0759 505.8356 505.7433 505.8214 506.0922 506.1372 506.1060 506.0880 506.1159 506.1509 506.1462 506.0694 505.9236 505.7945 505.7364 505.7542 505.8423 505.7964 505.5986 505.3652 504.9023 505.0884 505.3353 505.3810 505.3139 505.1691 504.9639 504.9383 504.8148 504.7202 504.7703 504.7711 504.7964 504.8883 504.9494 504.8897 504.7842 504.7726 504.9045 505.0873 505.0999 505.0555 504.9698 504.7874 504.9645 505.0839 505.2278 505.4066 505.8631 506.0611 506.2352 506.0338 505.1766 505.2164 505.2623 505.1338 504.9252 504.6180 504.8206 504.8705 505.2869 505.7092 506.1886 506.4984 506.1792 505.8948 505.7288 505.6317 505.5197 505.3552 505.3886 505.3486 505.1770 504.9587 505.0408 505.1633 505.2335 505.3614 505.5036 505.5545 505.3941 505.6439 506.0500 506.3580 506.0127 505.5056 505.2300 505.3714 505.9225 506.0558 506.0170 505.8755 505.3270 505.2331 505.2586 505.2311 505.2881 505.3777 505.3681 505.2608 505.2759 505.3405 505.3156 505.2850 505.6197 505.8141 505.9688 506.0870 506.2491 506.2313 506.1864 506.1261 505.7519 505.4945 505.3394 505.2333 505.1451 505.0817 504.9219 504.9713 505.2345 505.3917 505.3895 505.1136 504.1744 503.6622 503.2737 503.1225 503.0528 503.0347 503.1512 503.1613 503.6319 504.0449 504.4263 504.6613 504.4681 504.2620 504.1016 503.9667 503.5481 503.7667
506.9850 507.2250 507.4958 507.5602 507.4216 507.2816 507.2798 507.0349 506.6519 506.0758 505.8758 505.7855 505.7164 505.9530 506.1250 506.3425 506.4734 506.4353 506.2941 506.0623 506.0576 506.2125 506.3238 506.4275 506.5923 506.7520 506.7420 506.6773 506.6064 506.2047 505.9358 505.5750 504.9445 503.6516 502.8336 502.2500 502.5259 501.1291 500.4773 499.8139 499.3125 498.7670 498.0483 498.2473 499.1600 499.6311 499.7425 500.0062 500.5516 501.6903 502.1091 502.3708 502.6070 503.1081 503.4433 503.9005 504.2605 504.6583 505.2642 506.0345 506.5506 506.4544 506.3103 506.2298 506.2184 506.2711 506.3109 506.4061 506.6061 507.0314 507.1269 507.2439 507.3439 507.5270 507.7445 507.9450 508.1173 508.3030 508.2878 508.3378 508.4998 508.4567 508.2037 507.7692 507.6834 507.8956 508.2006 508.6341 508.8723 508.3503 508.0956 507.8823 507.7173 507.5919 507.5255 507.5616 507.7888 507.9570 507.6445 507.3175 507.2553 507.6272 507.8100 507.9636 508.0130 507.9264 507.8875 508.0259 508.1489 507.7866 507.5559 507.6094 507.8391 507.9316 507.7489 507.5475 507.4478 507.9763 507.6656 507.6033 507.6933 507.9771 507.9620 507.9662 508.0581 508.0500 507.9080 507.9182 508.0908 508.0798 508.0370 507.9880 507.8684 507.5031 507.1189 506.7950 506.7069 506.6489 506.5853 506.4441 506.3356 506.2106 505.9906 505.7272 505.6456 505.7514 505.8976 505.9545 505.9656 506.0794 506.0424 505.9322 505.8255 505.6667 505.5478 505.4059 505.2439 505.6153 505.8325 505.6470 505.4730 505.0333 504.8080 504.7317 504.8925 505.2778 505.0597 504.9262 505.1859 505.3169 504.8386 505.1933 505.2758 505.2002 505.4230 505.5467 505.4564 505.2288 505.2327 505.3592 505.4130 505.2500 505.2889 505.3269 505.2341 504.9109 504.8839 505.4124 505.6852 505.9167 506.0197 506.1092 505.9977 505.4744 505.4714 505.4533 505.2808 505.1580 504.8194 505.2834 505.2217 505.0916 505.2992 505.6781 506.0528 505.8470 505.5670 505.3111 505.1250 505.0806 505.1150 505.0956 505.0995 505.6819 506.0105 506.1461 506.0958 505.8461 505.9785 506.0495 505.9475 505.6195 505.3926 505.5564 505.7392 505.7191 505.4334 505.3339 505.2344 505.6736 505.7631 505.7676 505.7081 505.5158 505.6072 505.7225 505.7692 505.7322 505.7338 505.6786 505.5586 505.4222 505.4425 505.3883 505.2759 505.6958 505.9928 506.1784 506.3002 506.5300 506.3430 505.9481 505.6361 505.8142 505.7891 505.4942 505.1694 504.9597 505.0685 505.3417 505.6519 506.0059 505.8741 505.4914 504.9300 504.1292 503.7669 503.4402 503.1852 503.1263 503.2420 503.2534 503.3264 503.8408 504.1459 504.4622 504.6036 504.2505 503.9645 503.6478 503.4246 503.8314 504.4175
507.2026 507.3595 507.4777 507.4145 507.1397 507.1305 507.2578 507.0689 506.6814 506.0431 505.7802 505.7069 505.7238 505.7822 506.0025 506.2502 506.4564 506.5028 506.4672 506.4072 506.3722 506.2300 506.3430 506.4656 506.5594 506.5281 506.5017 506.4680 506.4263 506.1608 505.8506 505.2805 504.5239 503.6089 502.8423 502.3906 502.6212 501.7408 500.7917 499.8836 499.2336 498.5551 498.0323 498.4897 499.2115 499.4939 499.6469 499.9283 500.4431 501.5798 501.9798 502.2888 502.5377 502.9761 503.2945 503.7131 504.1077 504.6402 505.3320 506.0244 506.4355 506.3594 506.2847 506.2701 506.3145 506.4053 506.4386 506.5297 506.7139 507.0766 507.1159 507.1922 507.2872 507.4834 507.6616 507.8222 507.9934 508.1320 508.1506 508.2505 508.4501 508.3524 508.1128 507.7614 507.7849 508.0730 508.3944 508.9050 509.2294 508.7892 508.4147 508.2064 508.0661 507.8478 507.6762 507.6272 507.8645 507.8166 507.5344 507.3998 507.5758 508.0476 508.2009 508.2231 508.1749 507.9436 507.8728 507.9461 508.0269 507.6055 507.3159 507.3480 507.6266 507.8103 507.6425 507.5130 507.4933 507.8351 507.6097 507.5556 507.6872 508.0692 508.0751 507.9912 507.9728 507.9623 507.9556 508.0119 508.0775 508.0517 508.0081 507.9792 507.8327 507.4392 507.0522 506.7451 506.7350 506.7227 506.6988 506.6317 506.5191 506.3119 506.0934 505.8603 505.7517 505.6975 505.7900 505.7994 505.7844 505.9009 505.7314 505.6622 505.7098 505.3423 505.2061 505.1722 505.1345 505.4105 505.6663 505.5323 505.4409 505.1603 504.9125 504.9120 505.2567 505.5983 505.2600 505.1066 505.2845 505.2544 504.8653 505.2325 505.4200 505.5027 505.5805 505.6214 505.5765 505.5256 505.5458 505.5111 505.4961 505.3211 505.3530 505.4075 505.4292 505.2572 504.8016 505.3208 505.7427 505.7972 505.8259 505.8845 505.8022 505.5255 505.6047 505.5391 505.3592 505.4066 504.8636 505.3256 505.2338 505.0577 505.1550 505.4458 505.7335 505.6120 505.4205 505.2584 505.1694 505.1419 505.1458 505.2151 505.2719 505.9552 506.3186 506.5438 506.5034 506.0692 506.0100 505.9198 505.8521 505.5506 505.3561 505.3425 505.4273 505.6700 505.5839 505.5369 505.2820 505.4534 505.6233 505.7069 505.6603 505.5397 505.6749 505.8503 505.9174 505.9311 505.9069 505.8145 505.6815 505.5572 505.5505 505.4572 505.3214 505.7622 506.1428 506.3680 506.4659 506.4744 506.2075 505.8025 505.5856 506.0003 505.9478 505.6645 505.3828 505.1358 505.3323 505.6811 505.9486 506.0327 505.7249 505.2239 504.6717 504.1480 503.8830 503.5531 503.1608 503.3197 503.3773 503.4238 503.4233 503.9059 504.1770 504.4483 504.5484 504.0542 503.7283 503.4413 503.4171 503.9795 504.5809
507.5474 507.4059 507.3431 507.3064 507.1955 507.2534 507.3697 507.1830 506.8014 506.0906 505.8145 505.7155 505.7542 505.7234 505.8530 506.1195 506.3598 506.5820 506.6113 506.5669 506.4802 506.2409 506.3056 506.3862 506.4037 506.2239 506.1813 506.1947 506.2534 505.9760 505.6188 504.9475 504.1902 503.6491 502.9261 502.5378 502.6925 502.0247 501.0523 500.0297 499.2288 498.5161 498.1692 498.3288 499.1158 499.3741 499.5662 499.8947 500.3191 501.4423 501.8236 502.1925 502.4772 502.8483 503.1522 503.5420 503.9469 504.6650 505.4066 505.9614 506.2570 506.2831 506.3040 506.3842 506.4803 506.6075 506.6011 506.6620 506.8578 507.2481 507.2111 507.2400 507.3317 507.4561 507.5923 507.7647 507.9445 508.0234 508.0552 508.1987 508.3941 508.2808 508.1223 507.7988 507.7197 508.1880 508.5253 509.0328 509.3930 509.0075 508.6027 508.4150 508.3174 508.0876 507.8823 507.6564 507.7805 507.6545 507.4630 507.6376 507.9994 508.3031 508.3022 508.1902 508.0085 507.7589 507.7434 507.7910 507.8759 507.4620 507.2008 507.1761 507.4459 507.6398 507.5161 507.4586 507.5094 507.6889 507.4849 507.4337 507.5537 508.0077 508.0936 508.0031 507.9516 507.9898 508.0264 508.0573 507.9923 507.9641 507.8830 507.8620 507.7639 507.4517 507.1464 507.0262 506.9763 506.8208 506.8474 506.8595 506.7580 506.3964 506.2655 506.1364 505.9303 505.7313 505.7310 505.6773 505.6447 505.6505 505.5783 505.7487 505.8803 505.2778 505.1164 505.1236 505.2033 505.2919 505.4000 505.4703 505.6366 505.5689 505.3753 505.3900 505.5767 505.6605 505.4698 505.2908 505.3961 505.1977 504.8566 505.2364 505.5214 505.6686 505.6192 505.5759 505.6049 505.7484 505.7652 505.6877 505.5828 505.4480 505.4852 505.6099 505.6573 505.5294 504.9428 505.0483 505.4295 505.4516 505.5751 505.6920 505.6081 505.5339 505.6825 505.6608 505.5331 505.3672 504.8675 505.2820 505.1658 505.0223 505.0681 505.2591 505.4195 505.3967 505.3026 505.3203 505.4217 505.2559 505.1828 505.2178 505.3466 506.1724 506.5339 506.7101 506.5964 505.9706 505.7861 505.6650 505.6283 505.4111 505.3920 505.3905 505.3994 505.6381 505.6459 505.6016 505.3297 505.3034 505.5209 505.6797 505.6680 505.5380 505.6580 505.8342 505.9362 506.0469 506.0374 505.9342 505.7678 505.6406 505.6266 505.5539 505.4733 505.8828 506.2519 506.4583 506.4769 506.2334 505.9572 505.6503 505.6592 506.1647 506.0855 505.8603 505.6628 505.5528 505.8075 506.0356 506.0956 505.7712 505.3488 504.8412 504.4420 504.1191 503.9305 503.5623 503.1400 503.4587 503.5959 503.5927 503.4592 503.9133 504.1878 504.4372 504.4912 503.9080 503.5666 503.4195 503.6131 504.2839 504.8622
507.7272 507.3881 507.2186 507.3097 507.4378 507.5050 507.5234 507.2908 506.9031 506.2332 505.9945 505.7997 505.7136 505.7316 505.8083 506.0211 506.2739 506.6314 506.6984 506.6472 506.5095 506.1886 506.1389 506.1419 506.0956 505.9262 505.9388 506.0201 506.1273 505.7805 505.4105 504.7552 504.1420 503.8311 503.2572 502.7981 502.8445 502.3861 501.3022 500.1663 499.3177 498.5147 498.0545 498.2350 498.9312 499.2911 499.4877 499.8191 500.2075 501.3161 501.7448 502.1156 502.3955 502.7581 503.0349 503.3824 503.8155 504.6805 505.3967 505.8389 506.0383 506.2628 506.4070 506.5442 506.6398 506.7924 506.7605 506.7683 506.9734 507.4263 507.3252 507.2970 507.3602 507.4545 507.5911 507.7803 507.9362 507.9619 508.0036 508.1562 508.3012 508.2053 508.1292 507.8427 507.6797 508.2416 508.5455 508.9659 509.2899 508.7703 508.3491 508.2489 508.2869 508.2472 508.0176 507.6741 507.5695 507.5391 507.4017 507.7222 508.1095 508.2245 508.0887 507.9219 507.7008 507.4244 507.4508 507.5917 507.7264 507.3906 507.1981 507.1209 507.2728 507.5477 507.5229 507.4200 507.4517 507.4872 507.2513 507.2539 507.3278 507.7194 507.8911 507.9486 507.9755 508.1492 508.1984 508.1342 507.9430 507.8719 507.7545 507.6967 507.6567 507.5394 507.3909 507.3042 507.1537 506.9872 507.0125 507.0526 506.9716 506.8241 506.8802 506.7885 506.4125 505.8263 505.6927 505.6120 505.5862 505.6298 505.7670 505.9934 506.0747 505.4556 505.1047 505.0697 505.1162 505.2903 505.3661 505.5984 505.8686 506.0002 505.8439 505.7522 505.6906 505.5595 505.4135 505.3559 505.5075 505.1273 504.8445 505.2231 505.4300 505.5099 505.2964 505.2260 505.3031 505.8022 505.8594 505.8094 505.7316 505.6339 505.6958 505.8542 505.9070 505.5969 505.1611 504.8875 505.0675 505.0530 505.2878 505.4717 505.4105 505.5194 505.7091 505.7728 505.7017 505.3313 504.8612 505.2583 505.1633 504.9998 504.9770 505.0669 505.1856 505.2905 505.3425 505.4003 505.5431 505.4891 505.3844 505.4434 505.7042 506.3372 506.6075 506.7270 506.5527 505.8701 505.6619 505.5417 505.4903 505.4300 505.4861 505.5581 505.5553 505.5844 505.5981 505.5063 505.3175 505.2919 505.4555 505.6095 505.6013 505.5484 505.6708 505.7956 505.8984 506.0350 506.0634 506.0072 505.8188 505.6969 505.7344 505.7305 505.7578 506.1552 506.3917 506.4350 506.3130 505.8741 505.6677 505.6055 505.8192 506.2786 506.1867 506.0187 505.9012 506.0460 506.2101 506.2119 506.0583 505.3372 504.9091 504.5077 504.2405 504.0287 503.8484 503.4083 503.2177 503.6636 503.7328 503.6353 503.4478 503.9175 504.1992 504.4406 504.4727 503.8948 503.5826 503.5317 503.8631 504.5158 504.8925
507.6811 507.1748 507.0794 507.2278 507.5072 507.8258 507.6406 507.2559 506.8981 506.3937 506.1569 506.0223 505.9661 505.9149 505.9581 506.0864 506.2644 506.5231 506.5720 506.5444 506.3673 505.9576 505.8439 505.8184 505.8022 505.7794 505.8672 505.9528 505.9017 505.3831 505.1494 505.0380 505.1191 505.1620 504.6233 503.9183 503.3536 502.9852 501.8150 500.4445 499.4048 498.4301 497.8659 498.2910 498.8636 499.2061 499.3619 499.7044 500.0922 501.1367 501.5466 501.9767 502.3317 502.6864 502.8995 503.2048 503.6455 504.4194 504.9219 505.3697 505.7747 506.2056 506.4605 506.6694 506.7955 506.9044 506.8319 506.8503 507.1314 507.5611 507.4153 507.3770 507.4255 507.5642 507.5808 507.6800 507.8076 507.8566 507.8813 507.9824 508.0323 508.0553 508.0753 508.0067 507.9066 508.1125 508.2324 508.4164 508.5862 508.1227 508.0339 508.0325 508.1763 508.3133 507.9536 507.5653 507.4391 507.3936 507.3448 507.4702 507.6894 507.5736 507.4414 507.3555 507.1977 506.8069 506.8439 507.0038 507.1914 507.1931 506.9341 506.7090 506.7285 507.2101 507.2978 507.2048 507.1353 507.0470 506.9860 507.0195 507.1448 507.4789 507.8070 508.1067 508.2612 508.3802 508.3059 508.2070 508.2092 508.5041 508.4720 508.3753 508.2098 508.0678 507.9319 507.6809 507.3905 507.2219 507.2274 507.2406 507.3250 507.9589 508.2473 508.1920 507.7439 506.3213 505.9858 505.9903 506.2324 506.5281 506.5150 506.3965 506.4225 506.0533 505.6605 505.3003 505.1620 505.4653 505.7219 505.9906 506.3142 506.5514 506.1666 505.8066 505.4984 505.2946 505.3031 505.3933 505.2005 504.7136 504.7944 504.9266 505.0045 504.9928 504.9100 505.0077 505.0502 505.6150 505.8959 506.0472 506.1231 506.0733 506.1625 506.0938 505.7894 504.9637 504.9234 504.9125 504.8051 504.9233 504.9713 505.0586 505.0772 505.4099 505.4866 505.5486 505.5353 504.9662 504.8620 505.2834 505.2812 505.0844 504.9444 504.9417 505.0905 505.2658 505.2611 505.1834 505.1766 505.4430 505.6630 505.8878 506.0772 506.1319 506.2027 506.2569 506.2050 506.0483 506.0636 506.0831 506.0059 505.9152 505.9139 505.8114 505.6272 505.5094 505.4847 505.3802 505.3811 505.5194 505.5745 505.5173 505.4135 505.7462 505.8769 505.9192 505.9378 505.8527 505.8150 505.7628 505.6519 506.0416 506.3341 506.5033 506.6064 506.6595 506.4755 506.1338 505.7641 505.4152 505.4995 505.8081 506.1731 506.5000 506.5441 506.5059 506.4813 506.4794 506.2725 505.9255 505.4741 504.6299 504.3727 504.1742 504.0102 503.6758 503.2516 503.2252 503.5245 503.8267 503.6550 503.4117 503.3830 504.0836 504.3336 504.5055 504.4822 504.0589 503.7414 503.5422 503.8475 504.4116 504.4469
507.6050 507.1100 506.9875 507.0795 507.3500 507.7722 507.6487 507.2725 506.8623 506.3439 506.0278 505.8784 505.8764 506.0652 506.1295 506.1705 506.2659 506.4797 506.5764 506.5606 506.4283 505.9680 505.8859 505.8400 505.7930 505.8474 505.9881 506.0109 505.8808 505.4633 505.3925 505.4681 505.5795 505.5083 504.9675 504.3547 503.7455 503.4514 502.2098 500.6728 499.5170 498.4828 497.8624 498.2870 498.8938 499.1636 499.2997 499.7030 500.0883 501.0016 501.4689 501.8524 502.2697 502.6691 502.8401 503.1145 503.4997 504.2825 504.7092 505.2852 505.8664 506.1613 506.3061 506.5647 506.7895 506.8799 506.7988 506.8406 507.1173 507.5433 507.4200 507.4289 507.5050 507.5364 507.5064 507.5630 507.6884 507.7676 507.8142 507.8906 507.9272 507.9698 507.9188 507.8825 507.8314 507.6964 507.7398 508.0623 508.4103 508.3930 508.2330 508.1028 508.0908 508.0764 507.8616 507.6437 507.5475 507.3483 507.2627 507.3277 507.4206 507.2480 507.0955 507.0478 507.0930 506.9517 506.8667 506.7874 506.7952 506.8897 506.8092 506.6852 506.6036 506.9953 507.2277 507.3294 507.3384 507.1033 506.9361 507.0791 507.2934 507.6966 507.9303 508.1505 508.2128 508.0466 507.9609 508.0602 508.3362 509.2574 509.3844 509.1875 508.8563 508.3600 508.1850 507.8755 507.4864 507.2606 507.2461 507.1892 507.2711 508.0583 508.3433 508.3153 507.9000 506.6074 506.3223 506.3662 506.5974 506.8028 506.8287 506.7408 506.7375 506.3953 506.1461 505.8984 505.6889 505.6520 505.8044 506.0753 506.4680 506.5901 506.1697 505.7672 505.4425 505.4167 505.3655 505.1892 504.9388 504.7411 504.8855 505.0627 505.3291 505.2302 504.9138 504.9475 505.0377 505.6509 505.9097 506.0544 506.1011 505.9383 505.9139 505.8047 505.4434 504.9758 505.1011 505.1003 504.9171 504.8969 504.9189 504.9984 505.0051 505.3653 505.3717 505.4120 505.3973 504.8701 504.8972 505.2425 505.2024 505.0289 504.8889 504.9088 505.0297 505.1161 505.1109 504.9989 504.9250 505.0963 505.3270 505.6123 505.8250 505.8442 505.9073 505.9750 505.9727 506.0145 506.1803 506.2838 506.3134 506.1511 506.0267 505.8325 505.6655 505.6985 505.7000 505.5833 505.5677 505.8144 505.8403 505.8195 505.8017 506.0339 506.0892 506.0947 506.0556 505.7712 505.6288 505.5702 505.6378 506.3311 506.6512 506.8134 506.8192 506.5566 506.2497 505.7863 505.5140 505.2967 505.4131 505.7442 506.1081 506.5800 506.7830 506.8153 506.7856 506.4681 506.0377 505.5425 505.0617 504.4386 504.2536 504.1295 504.0005 503.4481 503.1000 503.4089 503.6306 503.7517 503.5664 503.3784 503.4766 504.3199 504.5678 504.6450 504.5109 504.0139 503.7498 503.4705 503.6094 504.0956 504.1184
507.5239 507.1655 507.0641 506.8430 506.9797 507.7000 507.6906 507.3387 506.8505 506.2850 506.0078 505.8547 505.9192 506.3083 506.3733 506.3264 506.3328 506.4722 506.5567 506.6034 506.5217 506.1408 506.0483 505.9367 505.8770 506.1303 506.2781 506.3040 506.2023 505.7480 505.6056 505.5991 505.6319 505.5505 505.0767 504.6267 504.0022 503.4941 502.4375 500.9120 499.6934 498.5204 497.8547 498.2570 498.8845 499.0711 499.3261 499.5872 499.9820 500.7900 501.3463 501.7552 502.2067 502.6333 502.7805 503.0341 503.3937 504.2011 504.6072 505.2805 505.9739 506.1981 506.2076 506.4174 506.7169 506.8447 506.7850 506.8056 507.0138 507.4428 507.3772 507.4308 507.5123 507.4322 507.3805 507.4334 507.5410 507.6917 507.7375 507.8030 507.8644 507.8231 507.7228 507.7070 507.7017 507.4073 507.4144 507.6747 508.1177 508.5317 508.3403 508.1055 507.9577 507.8438 507.8169 507.7483 507.6597 507.3202 507.2123 507.2194 507.2503 506.9653 506.8244 506.8550 507.0129 507.0936 507.0045 506.7497 506.6316 507.0173 507.0553 506.8733 506.6820 506.9686 507.2477 507.4288 507.4955 507.3300 507.2234 507.3631 507.5612 507.9455 507.9816 508.0439 508.0475 507.5638 507.4666 507.8091 508.3234 509.6223 509.8959 509.7258 509.2188 508.4950 508.2963 507.9846 507.5541 507.2625 507.1406 507.0020 507.0745 507.9766 508.1936 508.1372 507.8142 506.9841 506.7636 506.7002 506.6856 506.6398 506.8499 506.9806 507.0127 506.6335 506.4937 506.3750 506.1703 505.8975 505.9019 506.1162 506.4444 506.4970 506.1366 505.7216 505.4503 505.4772 505.1520 504.8808 504.8439 504.9319 505.1198 505.3959 505.6181 505.3370 504.9628 505.1376 505.3875 505.8014 505.8500 505.8675 505.8483 505.6960 505.6014 505.4631 505.2156 505.1861 505.3292 505.2594 505.0378 504.8944 505.0317 504.9634 504.9920 505.4275 505.3214 505.2980 505.2467 504.9402 504.9466 505.1800 505.0541 504.8105 504.7531 504.7692 504.8564 504.9567 504.9659 504.8692 504.7419 504.8365 505.0878 505.3533 505.5245 505.5461 505.6476 505.7717 505.8497 505.9411 506.1387 506.3354 506.4681 506.3925 506.1648 505.9113 505.7667 505.9247 505.9705 505.9025 505.9287 506.0692 506.1159 506.1675 506.2448 506.3055 506.3034 506.2694 506.2017 505.8091 505.6325 505.5925 505.8280 506.5276 506.7130 506.7506 506.6541 506.2825 505.9799 505.5900 505.4416 505.3502 505.4039 505.6702 506.0102 506.4636 506.6889 506.7498 506.7147 506.2625 505.7092 505.1900 504.7647 504.2764 504.1778 504.1134 504.0072 503.2045 503.1881 503.6397 503.7833 503.7125 503.5666 503.4383 503.6397 504.5112 504.7263 504.7469 504.5459 503.9745 503.6817 503.4056 503.3412 503.7570 503.8173
507.4992 507.0264 506.7703 506.6186 506.7002 507.5789 507.6516 507.3616 506.8328 506.2722 506.0884 505.9995 506.0705 506.4414 506.4336 506.3483 506.3342 506.4587 506.5689 506.6422 506.6189 506.3312 506.2126 506.0958 506.1164 506.5408 506.6934 506.7048 506.5795 505.9947 505.7137 505.5391 505.4424 505.5645 505.3114 504.9048 504.1911 503.3406 502.4264 501.0583 499.9485 498.6572 497.8887 498.1778 498.7831 498.9720 499.2244 499.4953 499.8405 500.7081 501.2658 501.6864 502.0991 502.6016 502.7545 503.0197 503.3719 504.1869 504.5906 505.2999 506.0088 506.2863 506.1914 506.3736 506.6766 506.7803 506.6919 506.7128 506.8719 507.3047 507.3070 507.3824 507.4533 507.3080 507.2797 507.3354 507.4320 507.6453 507.6841 507.7870 507.9097 507.7764 507.6680 507.6363 507.6517 507.4053 507.3361 507.4302 507.7130 508.3003 508.1834 508.0128 507.8730 507.8536 507.9294 507.8820 507.7296 507.3503 507.1617 507.0956 507.1605 506.9222 506.7302 506.7009 506.8405 506.9094 506.8252 506.8152 506.8109 507.2563 507.3139 507.2306 507.0172 507.1490 507.3409 507.4730 507.6266 507.7406 507.5851 507.6281 507.7297 507.9897 507.9361 507.8981 507.9473 507.4580 507.3564 507.6777 508.1661 509.4020 509.8031 509.7651 509.2538 508.4864 508.2603 507.9541 507.5714 507.2481 507.0395 506.8964 507.0075 507.8647 507.9644 507.8833 507.7327 507.3103 507.1269 506.8964 506.5528 506.2946 506.6236 506.9078 507.0162 506.7311 506.6033 506.5133 506.4077 506.1462 506.0630 506.1456 506.3134 506.3064 506.0226 505.6672 505.4083 505.1805 504.9288 504.8720 504.9880 505.2111 505.4287 505.5823 505.7058 505.2995 505.0206 505.4806 505.7611 505.9816 505.8009 505.6142 505.5066 505.5216 505.5031 505.3820 505.2701 505.4236 505.5006 505.4323 505.1423 504.9164 505.0900 505.0334 505.0733 505.5561 505.3816 505.2608 505.1848 505.0267 504.9733 505.1097 504.8711 504.6928 504.7719 504.7350 504.6930 504.8294 504.9419 504.9553 504.8195 504.8344 505.0055 505.1691 505.2397 505.2384 505.4047 505.6138 505.7563 505.8961 506.0950 506.3812 506.5801 506.5405 506.2998 506.0202 505.8616 506.0566 506.1600 506.1652 506.2023 506.3616 506.4745 506.5876 506.6667 506.5565 506.4861 506.4196 506.3381 505.9403 505.8255 505.8870 506.1613 506.5081 506.4576 506.3591 506.2414 506.0311 505.8620 505.6638 505.5927 505.5542 505.6131 505.7945 506.0716 506.2048 506.2655 506.2802 506.2467 505.8023 505.3578 504.9175 504.5498 504.1203 504.0741 504.0572 504.0063 503.0638 503.3578 503.7783 503.8697 503.7161 503.6344 503.6057 503.8177 504.5822 504.7416 504.7266 504.5494 503.9384 503.5730 503.3195 503.2055 503.4630 503.4850
507.4881 507.4147 507.1102 506.7653 506.6747 507.4408 507.4925 507.1653 506.7058 506.2047 506.1059 506.0356 506.0259 506.2585 506.2616 506.1548 506.2291 506.5947 506.7336 506.8441 506.8936 506.6011 506.4852 506.4273 506.5111 506.8083 506.8522 506.7820 506.6523 505.9977 505.7261 505.5120 505.3577 505.5730 505.4069 504.8670 504.5977 503.8206 502.9455 501.8102 500.4898 498.9117 498.3606 497.8016 498.0176 498.7606 499.0459 499.2520 499.6647 500.5133 500.9842 501.4656 501.9020 502.5536 502.7177 502.9702 503.3208 504.2822 504.5975 505.1501 505.7230 506.1925 506.0909 506.2284 506.4626 506.5000 506.4542 506.5269 506.7069 507.1105 507.1275 507.1797 507.1705 507.1358 507.2169 507.3926 507.5970 507.7397 507.6894 507.7767 507.9398 507.8613 507.6284 507.6044 507.6310 507.6280 507.4937 507.4885 507.7856 507.9825 508.0480 508.0865 508.2162 508.2712 508.1117 507.9192 507.6134 507.0170 506.8666 506.8814 507.0411 506.8697 506.5784 506.5494 506.7033 506.8412 506.9755 507.2170 507.3594 507.4933 507.5061 507.4565 507.3214 507.3470 507.3484 507.3694 507.4858 507.5777 507.3855 507.2849 507.2539 507.5069 507.6066 507.6608 507.7839 508.0425 507.9519 507.9400 508.0229 508.1964 508.5428 508.7831 508.6869 508.4870 508.3816 508.2011 507.9242 507.4501 507.1872 506.9034 506.9225 507.5406 507.7528 507.7969 507.6056 507.1744 507.1437 506.9644 506.5386 506.1856 506.3009 506.4171 506.5975 506.9383 506.9331 506.8967 506.8611 506.6539 506.3817 506.1352 505.9858 505.9188 505.7864 505.4464 505.1478 505.3784 505.5523 505.5764 505.6092 505.6123 505.5842 505.5467 505.3488 505.0903 505.3401 505.6000 505.8125 506.0713 505.7062 505.3563 505.2624 505.3909 505.3887 505.3928 505.4698 505.5187 505.5561 505.5559 505.2069 505.2458 505.3766 505.4947 505.6567 505.7938 505.5309 505.2608 505.1539 504.9300 504.9144 504.8351 504.6572 504.9391 505.1476 505.2667 505.1252 504.6678 504.9022 505.0780 505.1220 504.9870 504.9211 504.9330 504.8973 504.9517 505.1124 505.3423 505.5370 505.8725 506.1706 506.5372 506.7972 506.7583 506.5411 506.2436 506.0661 506.2841 506.4367 506.5333 506.6659 506.9916 507.1334 507.2219 507.1988 506.8833 506.7428 506.6420 506.5573 506.3359 506.4114 506.5733 506.6541 506.2614 505.9814 505.9045 505.9545 506.2481 506.3417 506.3877 506.3636 506.4533 506.5175 506.4341 506.2733 505.6861 505.4508 505.3650 505.2589 504.9424 504.6967 504.3584 504.1259 504.0374 503.9424 503.8763 503.8127 502.9834 503.3919 503.5622 503.6019 503.6475 503.7014 503.7658 503.8516 503.9994 504.1173 504.2566 504.3303 504.1647 503.9498 503.6831 503.4180 503.1572 503.1462
507.6264 507.5959 507.4758 507.2902 507.1823 507.5212 507.3958 506.9749 506.5442 505.9906 505.8674 505.8452 505.9144 506.2715 506.2756 506.1949 506.2833 506.6100 506.6603 506.7139 506.7513 506.5088 506.4239 506.3883 506.4708 506.6470 506.6252 506.5109 506.3630 505.8508 505.6628 505.5080 505.3800 505.5439 505.3434 504.8745 504.6289 503.8911 502.9353 501.8086 500.5997 499.0611 498.7109 498.1644 497.8630 498.4356 498.9916 499.2253 499.6905 500.4301 500.8448 501.2708 501.7349 502.4953 502.6870 502.9186 503.2847 504.3990 504.6898 505.0469 505.4688 505.8881 505.8728 506.0431 506.2580 506.3848 506.3723 506.4642 506.6806 507.0806 507.0478 507.0487 507.0530 507.1592 507.3306 507.6278 507.8755 507.9006 507.8028 507.8736 508.0461 508.0416 507.8089 507.6408 507.5931 507.7236 507.7039 507.6892 508.0053 508.1861 508.2563 508.3056 508.4669 508.3024 508.0212 507.8138 507.5713 507.0489 506.8847 506.9097 506.9409 506.9558 506.7406 506.6752 506.8227 507.1609 507.2514 507.4472 507.5394 507.4850 507.4120 507.2436 507.2573 507.3745 507.3466 507.3034 507.2964 507.2622 507.0783 506.9622 506.9372 507.2544 507.3411 507.3770 507.5206 507.9916 508.1084 508.1295 508.0425 507.6195 507.8833 508.2451 508.3686 508.4702 508.4155 508.3497 508.1903 507.8086 507.5663 507.2055 507.0237 507.5464 507.7437 507.7787 507.5209 506.9381 506.9578 506.9750 506.7352 506.3521 506.4673 506.5169 506.7563 507.1631 506.9903 506.7753 506.6861 506.5483 506.2991 506.0114 505.7776 505.6770 505.6064 505.3466 505.1173 505.6889 505.7736 505.8145 505.7787 505.5786 505.5002 505.3645 505.0867 505.0822 505.2403 505.3680 505.6534 505.9839 505.6650 505.3427 505.3362 505.3370 505.2428 505.2670 505.3961 505.5073 505.5701 505.5251 505.0744 505.3636 505.4934 505.6652 505.9175 505.8097 505.4514 505.2153 505.1858 504.8841 504.6976 504.6630 504.6288 504.9011 505.0886 505.1900 505.0578 504.5653 504.7430 504.8931 504.9417 504.7916 504.7681 504.7883 504.7613 504.9224 505.1058 505.3136 505.4758 505.9146 506.2497 506.6531 506.9617 506.9940 506.7572 506.4427 506.2511 506.4130 506.5517 506.6744 506.8220 507.1134 507.2089 507.2670 507.2458 507.0284 506.8830 506.7601 506.6864 506.5974 506.6916 506.7566 506.6916 506.2355 506.0770 506.0845 506.2009 506.3824 506.4525 506.5066 506.4881 506.5067 506.5898 506.4719 506.1148 505.3831 505.2158 505.1064 504.9530 504.5842 504.3391 504.1630 504.2651 504.0467 503.8995 503.7327 503.5566 502.9727 503.1248 503.1836 503.2030 503.5044 503.5500 503.5508 503.5997 503.5455 503.6492 503.8619 504.0772 504.3167 504.2473 503.9855 503.6363 503.1616 503.1709
507.8777 507.7885 507.7087 507.6781 507.6448 507.5438 507.2431 506.7827 506.3987 505.8187 505.6741 505.6916 505.8156 506.3223 506.3794 506.2800 506.2917 506.4764 506.5038 506.5463 506.5309 506.3608 506.3144 506.3333 506.4041 506.4755 506.4330 506.2828 506.1439 505.7391 505.6189 505.4730 505.3522 505.2222 504.9836 504.7641 504.5738 503.9691 503.1036 501.9839 500.7659 499.1767 498.8925 498.4791 498.1519 498.0198 498.8878 499.3272 499.7266 500.3712 500.6949 501.0730 501.5458 502.3650 502.6486 502.8861 503.2372 504.4214 504.7033 504.8755 505.1658 505.5113 505.5770 505.7695 505.9828 506.2106 506.2437 506.3731 506.5887 507.0137 506.9548 506.9392 506.9944 507.2412 507.4953 507.8936 508.1764 508.1200 507.9455 507.9467 508.0892 508.1597 507.9956 507.7853 507.6519 507.8655 507.9666 508.0339 508.2239 508.4336 508.5350 508.5747 508.5997 508.2100 507.9080 507.6845 507.5303 507.3123 507.1330 506.9500 506.8042 507.0030 506.9378 506.8192 506.8520 507.1303 507.2634 507.4994 507.6127 507.4073 507.2158 506.9648 507.0396 507.3514 507.3208 507.2147 507.1045 506.9058 506.7620 506.6537 506.6727 507.0350 507.1211 507.1433 507.2766 507.7842 508.0669 508.1975 508.0584 507.4298 507.6369 508.0003 508.1949 508.3450 508.3381 508.3631 508.3636 508.0739 507.8609 507.6067 507.4073 507.5576 507.6805 507.6805 507.3767 506.6756 506.7913 507.0155 507.0181 506.7961 506.7795 506.8500 507.0505 507.1284 506.7947 506.4920 506.4117 506.3486 506.1123 505.7900 505.5431 505.4102 505.3301 505.2491 505.1277 505.7667 505.8339 505.8577 505.7619 505.3358 505.3342 505.2492 504.9705 504.9986 505.1803 505.2906 505.4651 505.8806 505.7356 505.4789 505.4541 505.3455 505.1720 505.1767 505.3114 505.4694 505.5309 505.3616 505.0000 505.4713 505.5886 505.7978 506.0506 505.7062 505.2422 505.1272 505.2736 504.8583 504.3538 504.4070 504.4177 504.8092 504.9722 504.9402 504.7284 504.5105 504.6083 504.6548 504.6939 504.6555 504.6017 504.5769 504.5967 504.9138 505.1323 505.3174 505.4692 505.9708 506.3411 506.7567 507.1105 507.2508 507.0259 506.7188 506.5111 506.5666 506.6614 506.7870 506.9314 507.1380 507.2003 507.2341 507.2550 507.2256 507.1480 507.0269 506.9519 506.9041 506.9161 506.8161 506.6141 506.2483 506.2094 506.2678 506.3491 506.2472 506.2219 506.2506 506.2519 506.2222 506.2517 506.0869 505.6826 505.0706 504.9641 504.8112 504.5500 504.1305 504.2281 504.4500 504.4739 504.1100 503.9066 503.7266 503.5289 503.0150 503.0389 503.0319 503.0184 503.2689 503.2658 503.1814 503.2322 503.1692 503.2425 503.4091 503.6948 504.3492 504.4270 504.1852 503.8064 503.2081 503.2281
508.1920 508.0155 507.9731 507.9614 507.8394 507.4003 507.0723 506.6817 506.3238 505.7022 505.5648 505.5716 505.7184 506.3123 506.4408 506.3156 506.2550 506.3177 506.3689 506.4683 506.4353 506.2178 506.2206 506.2988 506.3492 506.3133 506.2719 506.1664 506.0334 505.6573 505.5195 505.4261 505.3741 505.1184 504.7975 504.6955 504.5406 504.0727 503.4006 502.3395 501.0861 499.2658 498.8764 498.6595 498.3153 497.7231 498.7214 499.2536 499.6487 500.2489 500.5361 500.8794 501.3712 502.2012 502.5672 502.7959 503.1295 504.1733 504.4197 504.6942 504.9575 505.2550 505.3513 505.5003 505.6613 505.9852 506.1017 506.2645 506.4514 506.8455 506.8606 506.9322 507.0641 507.3658 507.6501 508.0928 508.4145 508.3503 508.1214 508.0219 508.0772 508.1123 507.9589 507.8248 507.8599 508.0400 508.1705 508.2792 508.4325 508.6919 508.6999 508.5339 508.4161 507.9139 507.5891 507.3839 507.3642 507.5191 507.4003 507.1122 506.9158 506.9005 506.8619 506.8364 506.8904 507.0427 507.2008 507.4708 507.5930 507.2928 507.0719 506.8455 506.8561 507.2123 507.1967 507.0997 506.9062 506.6137 506.6253 506.5630 506.5927 506.9042 506.9622 506.9606 507.0730 507.6423 507.9527 508.1386 508.0444 507.6045 507.8275 508.1102 508.2027 508.1444 508.1505 508.2589 508.3669 508.1780 508.0450 507.9020 507.6991 507.5172 507.5562 507.4823 507.1383 506.6017 506.7078 506.9827 507.1486 507.0558 506.9880 507.0242 507.0742 506.8570 506.5116 506.2053 506.2039 506.2055 505.9395 505.6373 505.4108 505.2850 505.1997 505.1431 505.1419 505.6414 505.6895 505.7849 505.7266 505.2178 505.1795 505.1544 504.9503 505.0840 505.2948 505.4395 505.4667 505.7634 505.7299 505.6230 505.5814 505.3769 505.1809 505.1250 505.1992 505.5074 505.4436 505.1339 505.0455 505.5542 505.8077 506.0170 506.1325 505.5867 505.1997 505.1077 505.2917 504.7706 504.6412 504.5680 504.3452 504.4981 504.5722 504.5102 504.4670 504.6708 504.6989 504.5964 504.5127 504.5595 504.5369 504.5339 504.5953 504.9444 505.1478 505.3195 505.5097 506.0661 506.4355 506.8355 507.1649 507.4061 507.2553 506.9878 506.8078 506.7623 506.8286 506.9497 507.0733 507.2211 507.2422 507.2925 507.3761 507.5966 507.6041 507.5214 507.4017 507.1402 506.9914 506.7475 506.4813 506.2545 506.2310 506.2666 506.2619 505.9708 505.9144 505.9355 505.9319 505.8763 505.8450 505.6473 505.2744 504.8053 504.7069 504.4758 504.1636 504.0141 504.3442 504.6470 504.6223 504.1609 503.9592 503.7394 503.5345 503.1747 503.1216 503.0396 503.0055 503.0684 503.0192 502.9786 503.0033 502.9967 503.0278 503.0804 503.3820 504.2014 504.4058 504.2656 503.9297 503.2567 503.3072
508.2914 508.3984 508.4322 508.2767 507.8464 507.0191 506.9178 506.7497 506.4460 505.6970 505.5534 505.6625 505.8408 506.2197 506.4435 506.4230 506.2605 506.2039 506.3284 506.3797 506.2234 505.9583 505.9581 506.0059 506.0686 506.0948 506.0942 506.0623 505.9367 505.6841 505.6573 505.6377 505.5986 505.3202 504.9898 504.8334 504.5240 503.8239 503.2603 502.5455 501.5758 499.7362 499.0639 498.6924 498.3290 497.8184 498.7245 498.9858 499.3711 500.1325 500.3692 500.6170 500.9886 501.8230 502.1454 502.4181 502.7291 503.8252 504.4722 504.9111 505.1234 505.2300 505.3045 505.4833 505.7564 506.2831 506.2805 506.2641 506.3853 506.9081 507.1406 507.3081 507.4656 507.8422 508.0786 508.4078 508.6873 508.6764 508.5159 508.3542 508.2064 508.1375 508.1013 508.0781 508.1526 508.4291 508.6091 508.7822 508.7989 508.3430 508.1275 507.9030 507.7478 507.1973 507.1022 507.0478 507.2770 507.7120 507.6930 507.5623 507.4034 507.1036 506.8588 506.7975 506.7405 506.6512 506.7919 507.0854 507.2690 507.0058 506.7511 506.5229 506.5717 506.7480 506.6717 506.6931 506.7428 506.9950 506.7802 506.7289 506.8023 506.9192 506.8339 506.6722 506.6437 507.4044 507.7177 507.7737 507.6219 507.6501 507.8178 507.9684 508.0159 507.7638 507.7605 507.9417 508.0717 508.1639 508.1292 508.1466 508.1330 507.7567 507.5394 507.1959 506.7469 506.6447 506.7506 506.9594 507.0244 506.7681 506.7241 506.6822 506.5720 506.1526 505.9067 505.6660 505.4909 505.7452 505.7670 505.5258 505.3478 505.3219 505.3303 505.3266 505.2988 505.5311 505.6039 505.7345 505.7809 505.3244 505.1869 505.1158 505.1328 505.4149 505.6734 505.8466 505.9486 505.9767 506.0044 505.9481 505.8547 505.4658 505.0905 505.0444 505.3112 505.3339 505.0908 505.0758 505.2831 506.0781 506.5611 506.6822 506.3428 505.5570 505.3365 505.2411 505.3002 504.4863 504.6316 504.5513 504.4163 504.4861 504.6114 504.7709 504.8866 505.0619 504.9834 504.7762 504.5480 504.4280 504.5722 504.7037 504.7894 505.1239 505.3017 505.4803 505.6955 506.3259 506.7448 507.1053 507.2637 507.3603 507.3573 507.4356 507.4392 507.3376 507.3411 507.5102 507.6819 507.7952 507.7573 507.8075 508.0786 508.5424 508.5378 508.3202 507.9444 507.1709 506.9081 506.7080 506.5742 506.3859 506.2097 506.1108 506.0344 505.7155 505.5999 505.5019 505.4810 505.3764 505.1778 505.0014 504.8655 504.5236 504.3012 504.1716 504.0786 504.2575 504.5848 504.8756 504.9020 504.4356 504.1900 503.8798 503.6289 503.7827 503.6930 503.4661 503.2108 503.2002 503.3384 503.4144 503.3522 503.0978 503.1099 503.2183 503.1720 503.4103 503.7703 503.9681 503.9575 503.2728 503.3251
507.8172 508.2228 508.3517 508.1886 507.7076 506.8033 506.7216 506.6903 506.4658 505.8308 505.6685 505.8714 506.0297 506.2508 506.4728 506.5281 506.3888 506.2538 506.2885 506.2624 506.0941 505.8933 505.9044 505.9244 505.9614 506.0491 506.0609 506.0541 505.9924 505.8872 505.8992 505.8531 505.8234 505.7531 505.4020 505.1919 504.5887 503.7963 503.2836 502.6713 501.8247 499.8665 499.0762 498.7869 498.2569 497.9883 498.7391 498.9658 499.1684 500.0653 500.2885 500.5484 500.8384 501.5956 501.9709 502.2894 502.6723 503.8645 504.5133 504.9069 505.1169 505.2913 505.3328 505.5030 505.7995 506.4537 506.5009 506.4131 506.4881 507.0359 507.3517 507.5909 507.7275 508.0648 508.2344 508.4931 508.7483 508.6792 508.5517 508.3978 508.2170 508.1983 508.2294 508.2030 508.1883 508.5347 508.7166 508.7461 508.5467 508.0355 507.9311 507.7234 507.5702 507.2217 507.1820 507.3401 507.6323 507.8295 507.7009 507.5412 507.3147 507.0303 506.9067 506.7855 506.6664 506.6476 506.7070 506.8706 507.0099 506.7684 506.6667 506.6050 506.5639 506.6806 506.5247 506.5706 506.7475 507.3459 507.0228 506.9883 507.0444 507.2312 506.9475 506.6812 506.7100 507.3764 507.6664 507.6694 507.4517 507.4508 507.5733 507.7115 507.8599 507.7498 507.7042 507.8148 507.9827 508.2858 508.2370 508.2386 508.1544 507.6812 507.3906 507.0873 506.7519 506.7903 506.9619 507.0520 506.9045 506.4883 506.4169 506.3655 506.1372 505.7705 505.5180 505.5950 505.9709 506.4070 506.0536 505.5947 505.4322 505.4300 505.5892 505.7583 505.7283 505.5974 505.6991 505.7286 505.7311 505.5075 505.2914 505.2206 505.1402 505.5614 505.7748 505.9044 506.0744 506.3200 506.3955 506.2180 505.8703 505.4089 505.0694 505.0422 505.2067 504.9984 504.9586 505.1220 505.5572 506.4975 506.9252 506.9894 506.5349 505.7616 505.4917 505.3728 505.3356 504.4127 504.6030 504.5804 504.4600 504.5930 504.7908 504.9681 505.0808 505.1361 505.0201 504.8344 504.6439 504.4886 504.5959 504.7316 504.8694 505.2451 505.4486 505.6283 505.8311 506.4822 506.9898 507.3584 507.3461 507.2666 507.3856 507.5272 507.6306 507.7000 507.6584 507.7798 507.9403 508.0620 508.0164 508.0895 508.3514 508.5787 508.4241 508.1222 507.7737 507.2433 507.1167 506.9994 506.8834 506.5205 506.2795 506.1670 506.1139 505.7325 505.5583 505.4486 505.4584 505.2970 505.0058 504.8563 504.8502 504.5592 504.2250 504.1120 504.0248 504.2319 504.6436 505.0114 505.1650 504.5761 504.2467 503.9139 503.5981 503.8070 503.8286 503.6450 503.3411 503.3866 503.5667 503.6736 503.6658 503.3911 503.4045 503.6230 503.6967 503.2181 503.1972 503.4342 503.6227 503.1108 503.2792
